# .PCD v0.7 - Point Cloud Data file format
VERSION 0.7
FIELDS x y z
SIZE 4 4 4
TYPE F F F
COUNT 1 1 1
WIDTH 137
HEIGHT 1
VIEWPOINT 0 0 0 1 0 0 0
POINTS 137
DATA ascii
6.8282747 -8.8731022 -1.3715402
6.806396 -8.9023943 -1.3727561
6.8204188 -8.979063 -1.3812674
6.8340316 -9.0559044 -1.3897787
6.8174562 -9.093214 -1.3922106
8.2155809 -7.6504369 -1.3751879
8.1480513 -7.6354852 -1.3678925
8.0734711 -7.6133785 -1.3593811
8.0207148 -7.6113729 -1.3545175
7.9909167 -7.6282845 -1.3533016
7.9454374 -7.6327219 -1.3496538
7.8857393 -7.6231508 -1.3435744
7.8617492 -7.6478891 -1.3435744
7.8305922 -7.6656046 -1.3423585
7.8276844 -7.7110648 -1.3460062
7.7906699 -7.7202835 -1.3435744
7.7523217 -7.730701 -1.3411425
7.6999693 -7.7268963 -1.3362789
7.6616893 -7.7369409 -1.333847
7.6373448 -7.760973 -1.333847
7.5990458 -7.7707357 -1.3314153
7.5482826 -7.7647786 -1.3265517
7.503161 -7.7670398 -1.322904
7.4649763 -7.7762504 -1.3204721
7.3788476 -7.7350264 -1.3095291
7.3203688 -7.7221503 -1.3034495
7.2484288 -7.6945376 -1.2949382
7.2038698 -7.6955328 -1.2912905
7.1728988 -7.7108574 -1.2900746
7.1351638 -7.7187772 -1.2876428
7.1108809 -7.7411532 -1.2876428
7.0798321 -7.7561255 -1.2864269
7.0434494 -7.7623944 -1.283995
7.0137386 -7.7758889 -1.2827792
6.989275 -7.7978854 -1.2827792
6.9647446 -7.8198028 -1.2827792
6.9335628 -7.8342137 -1.2815633
6.9089179 -7.8559561 -1.2815633
6.8907351 -7.885097 -1.2827792
6.8724365 -7.9141998 -1.283995
6.8410568 -7.9282355 -1.2827792
6.8225741 -7.9572248 -1.283995
6.8104181 -7.9937296 -1.2864269
6.8045106 -8.0378132 -1.2900746
6.8047848 -8.0895319 -1.2949382
6.7934866 -8.124917 -1.2973701
6.8059831 -8.192029 -1.3046654
6.8497233 -8.2975693 -1.3180404
6.8110318 -8.3036985 -1.3156085
6.7849131 -8.3250542 -1.3156085
6.7899561 -8.3848991 -1.3216881
6.8086138 -8.4591331 -1.3301994
6.8068018 -8.5114889 -1.335063
6.9669857 -9.0566216 -0.99979597
6.9505997 -9.0942936 -1.0015393
6.9460897 -9.1478224 -1.005026
6.9293175 -9.185504 -1.0067693
6.9302974 -9.2470856 -1.0111276
6.9071617 -9.276803 -1.0119992
6.9016824 -9.3304911 -1.0154859
6.8900299 -9.3762121 -1.0181009
6.8722892 -9.4139023 -1.0198443
6.8660741 -9.4677038 -1.0233309
6.8670769 -9.5284424 -1.0276892
6.860302 -9.5823708 -1.0311759
6.8491669 -9.6270342 -1.0337908
6.8591347 -9.705451 -1.0398924
6.8457818 -9.7514124 -1.0425074
6.8493042 -9.8218975 -1.0477374
6.852447 -9.8925037 -1.0529674
6.8326302 -9.9303942 -1.0547106
6.8407459 -10.009384 -1.0608124
6.8372416 -10.072037 -1.0651706
6.8389831 -10.143024 -1.0704006
6.8237109 -10.189293 -1.0730156
6.8431182 -10.284137 -1.0808605
6.8382382 -10.347139 -1.0852189
6.8384957 -10.41854 -1.0904489
6.8438153 -10.498388 -1.0965505
6.8324528 -10.553288 -1.1000371
6.8369808 -10.633355 -1.1061387
6.8142638 -10.671575 -1.1078821
6.8340554 -10.777058 -1.1165987
6.8320155 -10.849053 -1.1218287
6.8401508 -10.938036 -1.1288019
6.8286967 -10.99213 -1.1322886
6.8307414 -11.072878 -1.1383902
6.8375525 -11.16224 -1.1453635
6.8335123 -11.234734 -1.1505935
6.8445349 -11.332893 -1.1584384
6.8345137 -11.397058 -1.1627969
6.8516464 -11.502872 -1.1715133
6.8408327 -11.567213 -1.1758717
8.4077168 -8.0289755 -1.0172293
8.2890739 -7.9656153 -1.0058976
8.2425232 -7.9708414 -1.0032827
8.1674662 -7.9480643 -0.997181
8.113987 -7.9458022 -0.99369437
8.0747938 -7.9572697 -0.99195111
8.0299234 -7.9601531 -0.98933607
7.9696121 -7.9501638 -0.98497778
7.9375658 -7.9681044 -0.98410612
7.8844619 -7.9646811 -0.98061949
7.845428 -7.9752083 -0.97887611
7.7994432 -7.978446 -0.97626114
7.7618504 -7.9872637 -0.97451776
7.7228789 -7.9972777 -0.97277451
7.6770253 -7.9999356 -0.97015953
7.6381044 -8.0095959 -0.96841615
7.5992012 -8.0190887 -0.9666729
7.5534797 -8.0211678 -0.96405786
7.5282445 -8.0448561 -0.96405786
7.49615 -8.0611725 -0.96318626
7.4572659 -8.0700502 -0.96144289
7.4318776 -8.0934362 -0.96144289
7.3996978 -8.1093874 -0.96057123
7.3622198 -8.1165485 -0.95882791
7.3381047 -8.1383581 -0.95882791
7.312501 -8.1613712 -0.95882791
7.2735777 -8.1694212 -0.9570846
7.2280717 -8.1698513 -0.95446962
7.2023711 -8.1925173 -0.95446962
7.1634893 -8.200099 -0.95272624
7.1442227 -8.2300863 -0.9535979
7.1248384 -8.2600336 -0.95446962
7.09237 -8.2748127 -0.9535979
7.0598812 -8.2894678 -0.95272624
7.0402398 -8.319211 -0.9535979
7.0204825 -8.3489103 -0.95446962
7.0020661 -8.3773499 -0.95534128
6.9757133 -8.3993063 -0.95534128
6.9683146 -8.4442291 -0.95795625
6.960701 -8.4891891 -0.96057123
6.9465833 -8.5264606 -0.96231461
6.9322953 -8.5637293 -0.96405786
6.9380817 -8.6230669 -0.96841615
6.9296184 -8.6681643 -0.97103113
