# .PCD v0.7 - Point Cloud Data file format
VERSION 0.7
FIELDS x y z normal_x normal_y normal_z curvature
SIZE 4 4 4 4 4 4 4
TYPE F F F F F F F
COUNT 1 1 1 1 1 1 1
WIDTH 217
HEIGHT 1
VIEWPOINT 0 0 0 1 0 0 0
POINTS 217
DATA ascii
-1.3409449 -0.66188335 -1.5490469 0 0 0 3.8970447e-38
-1.3136654 -0.68604565 -1.5459111 0 0 0 3.8970447e-38
-1.2741902 -0.6322422 -1.5553184 0 0 0 3.8970447e-38
-1.2422239 -0.62734413 -1.5568861 0 0 0 3.8970447e-38
-1.2135032 -0.63201904 -1.5568861 0 0 0 3.8970447e-38
-1.1847402 -0.64680195 -1.5553184 0 0 0 3.8970447e-38
-1.1543921 -0.65193462 -1.5553184 0 0 0 3.8970447e-38
-1.1240603 -0.65716267 -1.5553184 0 0 0 3.8970447e-38
-1.0954684 -0.67221165 -1.5537505 0 0 0 3.8970447e-38
-1.0669546 -0.68734455 -1.5521826 0 0 0 3.8970447e-38
-1.038413 -0.69253922 -1.5521826 0 0 0 3.8970447e-38
-1.0100225 -0.70783997 -1.5506147 0 0 0 3.8970447e-38
-0.97969985 -0.70350075 -1.5521826 0 0 0 3.8970447e-38
-0.9514035 -0.71897507 -1.5506147 0 0 0 3.8970447e-38
-0.92318618 -0.73453045 -1.5490469 0 0 0 3.8970447e-38
-0.89311504 -0.74048519 -1.5490469 0 0 0 3.8970447e-38
-0.86473167 -0.74619484 -1.5490469 0 0 0 3.8970447e-38
-0.8327049 -0.74266052 -1.5506147 0 0 0 3.8970447e-38
-0.80468249 -0.75856495 -1.5490469 0 0 0 3.8970447e-38
-0.77674079 -0.77455235 -1.547479 0 0 0 3.8970447e-38
-0.74679613 -0.78096676 -1.547479 0 0 0 3.8970447e-38
-0.7168715 -0.78747463 -1.547479 0 0 0 3.8970447e-38
-0.69291377 -0.81299019 -1.5443432 0 0 0 3.8970447e-38
-0.66309023 -0.81966782 -1.5443432 0 0 0 3.8970447e-38
-0.63494277 -0.8260603 -1.5443432 0 0 0 3.8970447e-38
-0.60516047 -0.83291912 -1.5443432 0 0 0 3.8970447e-38
-0.57931304 -0.84909725 -1.5427755 0 0 0 3.8970447e-38
-0.54960322 -0.8561306 -1.5427755 0 0 0 3.8970447e-38
-0.52223682 -0.87285805 -1.5412076 0 0 0 3.8970447e-38
-0.49260211 -0.88007164 -1.5412076 0 0 0 3.8970447e-38
-0.46225548 -0.87738419 -1.5427755 0 0 0 3.8970447e-38
-0.43504477 -0.8943634 -1.5412076 0 0 0 3.8970447e-38
-0.4079175 -0.91142082 -1.5396397 0 0 0 3.8970447e-38
-0.37593484 -0.9094305 -1.5412076 0 0 0 3.8970447e-38
-0.35141492 -0.93621349 -1.5380718 0 0 0 3.8970447e-38
-0.32198024 -0.94396305 -1.5380718 0 0 0 3.8970447e-38
-0.2967608 -0.96090508 -1.536504 0 0 0 3.8970447e-38
-0.2674036 -0.96882629 -1.536504 0 0 0 3.8970447e-38
-0.23970103 -0.97639179 -1.536504 0 0 0 3.8970447e-38
-0.21568489 -1.0035229 -1.5333682 0 0 0 3.8970447e-38
-0.18646193 -1.0116987 -1.5333682 0 0 0 3.8970447e-38
-0.15997124 -1.0294647 -1.5318004 0 0 0 3.8970447e-38
-0.12971473 -1.0278587 -1.5333682 0 0 0 3.8970447e-38
-0.10333252 -1.0457859 -1.5318004 0 0 0 3.8970447e-38
-0.079829931 -1.0732603 -1.5286647 0 0 0 3.8970447e-38
-0.045180559 -1.0629339 -1.5318004 0 0 0 3.8970447e-38
-0.021851063 -1.0905552 -1.5286647 0 0 0 3.8970447e-38
0.0054895878 -1.0988493 -1.5286647 0 0 0 3.8970447e-38
0.029896736 -1.116662 -1.5270969 0 0 0 3.8970447e-38
0.055824041 -1.1350384 -1.5255289 0 0 0 3.8970447e-38
0.084632158 -1.1440659 -1.5255289 0 0 0 3.8970447e-38
0.11341166 -1.1531839 -1.5255289 0 0 0 3.8970447e-38
0.14056611 -1.1618795 -1.5255289 0 0 0 3.8970447e-38
0.16623449 -1.1805658 -1.5239611 0 0 0 3.8970447e-38
0.19181442 -1.1993217 -1.5223932 0 0 0 3.8970447e-38
0.22041988 -1.2087765 -1.5223932 0 0 0 3.8970447e-38
0.24899554 -1.2183208 -1.5223932 0 0 0 3.8970447e-38
0.27119517 -1.2466612 -1.5192574 0 0 0 3.8970447e-38
0.30127215 -1.24648 -1.5208254 0 0 0 3.8970447e-38
0.32649875 -1.2656126 -1.5192574 0 0 0 3.8970447e-38
0.35331869 -1.2749386 -1.5192574 0 0 0 3.8970447e-38
0.38168597 -1.2849007 -1.5192574 0 0 0 3.8970447e-38
0.41002178 -1.2949514 -1.5192574 0 0 0 3.8970447e-38
0.43498015 -1.3143845 -1.5176896 0 0 0 3.8970447e-38
0.46165466 -1.3240318 -1.5176896 0 0 0 3.8970447e-38
0.49326968 -1.3250618 -1.5192574 0 0 0 3.8970447e-38
0.51461625 -1.3539848 -1.5161219 0 0 0 3.8970447e-38
0.54273415 -1.3644533 -1.5161219 0 0 0 3.8970447e-38
0.57081938 -1.3750095 -1.5161219 0 0 0 3.8970447e-38
0.59887099 -1.3856544 -1.5161219 0 0 0 3.8970447e-38
0.61824179 -1.4142246 -1.5129861 0 0 0 3.8970447e-38
0.64617014 -1.4250183 -1.5129861 0 0 0 3.8970447e-38
0.67251539 -1.4352922 -1.5129861 0 0 0 3.8970447e-38
0.70037746 -1.4462566 -1.5129861 0 0 0 3.8970447e-38
0.72300148 -1.4658651 -1.5114181 0 0 0 3.8970447e-38
0.75814104 -1.458663 -1.5145539 0 0 0 3.8970447e-38
-0.71071362 1.4867792 -1.4675967 0 0 0 3.8970447e-38
-0.67542958 1.4703789 -1.4663807 0 0 0 3.8970447e-38
-0.64228082 1.4542513 -1.4651649 0 0 0 3.8970447e-38
-0.6071589 1.4376469 -1.463949 0 0 0 3.8970447e-38
-0.57231426 1.4310789 -1.463949 0 0 0 3.8970447e-38
-0.53732514 1.4142656 -1.462733 0 0 0 3.8970447e-38
-0.50050521 1.4070883 -1.462733 0 0 0 3.8970447e-38
-0.4656527 1.3900633 -1.4615171 0 0 0 3.8970447e-38
-0.43292379 1.3733473 -1.4603012 0 0 0 3.8970447e-38
-0.39623284 1.3658419 -1.4603012 0 0 0 3.8970447e-38
-0.36160064 1.3485069 -1.4590853 0 0 0 3.8970447e-38
-0.32911897 1.3213606 -1.4566535 0 0 0 3.8970447e-38
-0.29259181 1.31353 -1.4566535 0 0 0 3.8970447e-38
-0.25396299 1.3152809 -1.4578694 0 0 0 3.8970447e-38
-0.35963988 0.077145576 -1.3070973 0 0 0 3.8970447e-38
-0.36157656 -0.075405121 -1.2888587 0 0 0 3.8970447e-38
-0.35044289 -0.16995335 -1.2779156 0 0 0 3.8970447e-38
-0.33042216 -0.22591114 -1.271836 0 0 0 3.8970447e-38
-0.34358644 -0.40668869 -1.2499497 0 0 0 3.8970447e-38
-0.36094999 -0.6069746 -1.2256316 0 0 0 3.8970447e-38
-0.35256124 -0.70125675 -1.2146885 0 0 0 3.8970447e-38
-0.32983875 -0.73783398 -1.2110409 0 0 0 3.8970447e-38
-0.34000039 -0.89928722 -1.1915864 0 0 0 3.8970447e-38
-0.32571292 -0.96463871 -1.1842909 0 0 0 3.8970447e-38
-0.31085896 -1.0199652 -1.1782113 0 0 0 3.8970447e-38
-0.29730225 -1.0853128 -1.170916 0 0 0 3.8970447e-38
-0.2830987 -1.1406431 -1.1648364 0 0 0 3.8970447e-38
-0.26495004 -1.1868563 -1.1599728 0 0 0 3.8970447e-38
-0.24706697 -1.2330923 -1.1551092 0 0 0 3.8970447e-38
-0.23216987 -1.2888966 -1.1490296 0 0 0 3.8970447e-38
-0.21366429 -1.3251781 -1.1453819 0 0 0 3.8970447e-38
-0.19378996 -1.3619452 -1.1417342 0 0 0 3.8970447e-38
-0.17131162 -1.3892269 -1.1393025 0 0 0 3.8970447e-38
-0.14897895 -1.416563 -1.1368706 0 0 0 3.8970447e-38
-0.12105417 -1.4249458 -1.1368706 0 0 0 3.8970447e-38
-0.097602129 -1.4424372 -1.1356548 0 0 0 3.8970447e-38
-0.07715559 -1.4694748 -1.1332229 0 0 0 3.8970447e-38
-0.046442032 -1.4686079 -1.1344389 0 0 0 3.8970447e-38
-0.021666288 -1.4867792 -1.1332229 0 0 0 3.8970447e-38
0.012066603 -1.4766474 -1.1356548 0 0 0 3.8970447e-38
0.041303873 -1.4755926 -1.1368706 0 0 0 3.8970447e-38
0.069041967 -1.4845734 -1.1368706 0 0 0 3.8970447e-38
0.099853992 -1.4842119 -1.1380866 0 0 0 3.8970447e-38
0.13069654 -1.4839573 -1.1393025 0 0 0 3.8970447e-38
0.16156912 -1.4838095 -1.1405183 0 0 0 3.8970447e-38
0.19566202 -1.474371 -1.1429501 0 0 0 3.8970447e-38
0.22186327 -1.4833078 -1.1429501 0 0 0 3.8970447e-38
0.25931978 -1.4647179 -1.1465977 0 0 0 3.8970447e-38
0.28882504 -1.4644747 -1.1478137 0 0 0 3.8970447e-38
0.31990242 -1.4648733 -1.1490296 0 0 0 3.8970447e-38
0.35434175 -1.4560318 -1.1514614 0 0 0 3.8970447e-38
0.38550425 -1.4566574 -1.1526773 0 0 0 3.8970447e-38
0.41175699 -1.4661579 -1.1526773 0 0 0 3.8970447e-38
0.44636488 -1.4576664 -1.1551092 0 0 0 3.8970447e-38
0.47760773 -1.4586124 -1.1563251 0 0 0 3.8970447e-38
0.50887656 -1.4596691 -1.1575409 0 0 0 3.8970447e-38
0.54367971 -1.4515476 -1.1599728 0 0 0 3.8970447e-38
0.57856631 -1.4435596 -1.1624045 0 0 0 3.8970447e-38
0.60842252 -1.4443693 -1.1636205 0 0 0 3.8970447e-38
0.64344454 -1.4366274 -1.1660523 0 0 0 3.8970447e-38
0.67337728 -1.4376526 -1.1672682 0 0 0 3.8970447e-38
0.70853305 -1.4301586 -1.1697 0 0 0 3.8970447e-38
0.73854136 -1.4313984 -1.170916 0 0 0 3.8970447e-38
0.77382874 -1.4241552 -1.1733477 0 0 0 3.8970447e-38
0.80919743 -1.4170456 -1.1757796 0 0 0 3.8970447e-38
0.84841013 -1.4008865 -1.1794273 0 0 0 3.8970447e-38
-0.41828227 1.434988 -1.048609 0 0 0 3.8970447e-38
-0.41562462 1.2615786 -1.0337908 0 0 0 3.8970447e-38
-0.41198874 1.0980196 -1.0198443 0 0 0 3.8970447e-38
-0.41350555 0.91506672 -1.0041543 0 0 0 3.8970447e-38
-0.40772748 0.77118587 -0.99195111 0 0 0 3.8970447e-38
-0.4049654 0.61765003 -0.97887611 0 0 0 3.8970447e-38
-0.40502405 0.46462727 -0.96580124 0 0 0 3.8970447e-38
-0.4019208 0.3210001 -0.9535979 0 0 0 3.8970447e-38
-0.40152597 0.17788124 -0.94139469 0 0 0 3.8970447e-38
-0.40466309 0.015027046 -0.92744803 0 0 0 3.8970447e-38
-0.39915633 -0.098799706 -0.91785979 0 0 0 3.8970447e-38
-0.35552168 -0.057954788 -0.92221814 0 0 0 3.8970447e-38
-0.37958741 -0.298069 -0.90129828 0 0 0 3.8970447e-38
-0.37901735 -0.4315052 -0.88996667 0 0 0 3.8970447e-38
-0.38096213 -0.56442261 -0.87863505 0 0 0 3.8970447e-38
-0.38686347 -0.7169838 -0.86556005 0 0 0 3.8970447e-38
-0.3739872 -0.7921896 -0.85945845 0 0 0 3.8970447e-38
-0.35657144 -0.84809208 -0.85510015 0 0 0 3.8970447e-38
-0.34200692 -0.91364574 -0.8498702 0 0 0 3.8970447e-38
-0.33038497 -0.98882675 -0.84376854 0 0 0 3.8970447e-38
-0.31824112 -1.0539322 -0.83853859 0 0 0 3.8970447e-38
-0.30224442 -1.1098499 -0.8341803 0 0 0 3.8970447e-38
-0.29081225 -1.174942 -0.82895035 0 0 0 3.8970447e-38
-0.27548885 -1.2308655 -0.82459205 0 0 0 3.8970447e-38
-0.26049232 -1.2867947 -0.8202337 0 0 0 3.8970447e-38
-0.24035692 -1.3235674 -0.81761873 0 0 0 3.8970447e-38
-0.22198915 -1.3599272 -0.81500369 0 0 0 3.8970447e-38
-0.19667721 -1.3776436 -0.81413209 0 0 0 3.8970447e-38
-0.17427182 -1.4049854 -0.81238872 0 0 0 3.8970447e-38
-0.14916158 -1.4228354 -0.81151706 0 0 0 3.8970447e-38
-0.12125683 -1.4312172 -0.81151706 0 0 0 3.8970447e-38
-0.10074449 -1.4582701 -0.80977374 0 0 0 3.8970447e-38
-0.074494362 -1.4663277 -0.80977374 0 0 0 3.8970447e-38
-0.043759108 -1.465435 -0.81064546 0 0 0 3.8970447e-38
-0.012991428 -1.4646482 -0.81151706 0 0 0 3.8970447e-38
0.014781713 -1.4734583 -0.81151706 0 0 0 3.8970447e-38
0.056262732 -1.4344501 -0.81587535 0 0 0 3.8970447e-38
0.087215185 -1.4340057 -0.81674707 0 0 0 3.8970447e-38
0.11508417 -1.4431305 -0.81674707 0 0 0 3.8970447e-38
0.14606857 -1.4428902 -0.81761873 0 0 0 3.8970447e-38
0.17708302 -1.4427576 -0.81849033 0 0 0 3.8970447e-38
0.20812774 -1.4427328 -0.81936204 0 0 0 3.8970447e-38
0.23442268 -1.4517069 -0.81936204 0 0 0 3.8970447e-38
0.26875782 -1.4424677 -0.82110536 0 0 0 3.8970447e-38
0.29834223 -1.4422197 -0.82197696 0 0 0 3.8970447e-38
0.33282232 -1.4332218 -0.82372034 0 0 0 3.8970447e-38
0.36069179 -1.443119 -0.82372034 0 0 0 3.8970447e-38
0.39190865 -1.4437313 -0.82459205 0 0 0 3.8970447e-38
0.41819978 -1.4532509 -0.82459205 0 0 0 3.8970447e-38
0.44944096 -1.4540653 -0.82546365 0 0 0 3.8970447e-38
0.48070955 -1.4549875 -0.82633531 0 0 0 3.8970447e-38
0.51549792 -1.4466906 -0.82807869 0 0 0 3.8970447e-38
0.54684758 -1.4478426 -0.82895035 0 0 0 3.8970447e-38
0.57822275 -1.4491043 -0.82982194 0 0 0 3.8970447e-38
0.61523652 -1.4312868 -0.83243698 0 0 0 3.8970447e-38
0.64671993 -1.4327869 -0.83330858 0 0 0 3.8970447e-38
0.68031549 -1.4245129 -0.83505195 0 0 0 3.8970447e-38
0.71187711 -1.4262381 -0.83592361 0 0 0 3.8970447e-38
0.74191117 -1.4274559 -0.83679521 0 0 0 3.8970447e-38
0.77724195 -1.4201565 -0.83853859 0 0 0 3.8970447e-38
0.80890203 -1.4222202 -0.83941031 0 0 0 3.8970447e-38
0.84814429 -1.4059629 -0.84202522 0 0 0 3.8970447e-38
0.88371563 -1.3990688 -0.84376854 0 0 0 3.8970447e-38
0.92320418 -1.3831167 -0.84638357 0 0 0 3.8970447e-38
0.96126842 -1.3666687 -0.84899855 0 0 0 3.8970447e-38
0.99323869 -1.3693705 -0.8498702 0 0 0 3.8970447e-38
1.0173833 -1.3905001 -0.84899855 0 0 0 3.8970447e-38
1.0335295 -1.4299812 -0.84638357 0 0 0 3.8970447e-38
1.0638366 -1.4322729 -0.84725517 0 0 0 3.8970447e-38
1.099721 -1.4262247 -0.84899855 0 0 0 3.8970447e-38
1.138164 -1.4105196 -0.85161352 0 0 0 3.8970447e-38
1.182353 -1.3865633 -0.85510015 0 0 0 3.8970447e-38
1.2267318 -1.3627977 -0.85858679 0 0 0 3.8970447e-38
1.2795396 -1.3210821 -0.8638168 0 0 0 3.8970447e-38
1.3409452 -1.2614975 -0.87079006 0 0 0 3.8970447e-38
