# .PCD v0.7 - Point Cloud Data file format
VERSION 0.7
FIELDS x y z
SIZE 4 4 4
TYPE F F F
COUNT 1 1 1
WIDTH 288
HEIGHT 1
VIEWPOINT 0 0 0 1 0 0 0
POINTS 288
DATA ascii
0.61997694 -5.7726679 -1.5530707
0.59282571 -5.6881132 -1.5298134
0.5710693 -5.6515012 -1.5194768
0.54762828 -5.6052914 -1.5065562
0.52728838 -5.5781317 -1.4988036
0.50976133 -5.5797606 -1.4988036
0.49053323 -5.5620885 -1.4936353
0.47223833 -5.5539765 -1.4910513
0.45478743 -5.5554328 -1.4910513
0.4383018 -5.5567579 -1.4910513
0.41865423 -5.5292087 -1.4832988
0.40198183 -5.540132 -1.485883
0.38457477 -5.5413675 -1.485883
0.36621052 -5.5135665 -1.4781305
0.34670812 -5.4954686 -1.4729623
0.33117557 -5.5254598 -1.4807147
0.31436393 -5.5361176 -1.4832988
0.30053151 -5.585258 -1.4962195
0.28396067 -5.6054707 -1.5013878
0.26497361 -5.5773864 -1.4936353
0.24616584 -5.5492392 -1.485883
0.22714108 -5.5113764 -1.4755464
0.2076204 -5.4541426 -1.4600415
0.1900824 -5.4161167 -1.4497049
0.17244771 -5.3973765 -1.4445366
0.1552134 -5.3882356 -1.4419525
0.1387804 -5.408011 -1.4471208
0.12149321 -5.4374146 -1.4548732
0.10422477 -5.4281111 -1.4522891
0.087961689 -5.4187374 -1.4497049
0.071065292 -5.4286466 -1.4522891
0.053817905 -5.4095235 -1.4471208
0.036954392 -5.4289861 -1.4522891
0.019827496 -5.4097548 -1.4471208
0.0028116882 -5.3711491 -1.4367843
-0.013218276 -5.4097748 -1.4471208
-0.030051896 -5.3807259 -1.4393682
-0.047124635 -5.3999248 -1.4445366
-0.063743778 -5.3707714 -1.4367843
-0.080617756 -5.3705449 -1.4367843
-0.098191023 -5.4088998 -1.4471208
-0.11415363 -5.3602738 -1.4342
-0.13146515 -5.3792038 -1.4393682
-0.14836271 -5.3787642 -1.4393682
-0.16407332 -5.3396482 -1.4290317
-0.18019496 -5.319797 -1.4238634
-0.19797775 -5.348166 -1.4316159
-0.21152949 -5.2896395 -1.4161111
-0.22689633 -5.2599945 -1.4083586
-0.2465467 -5.3268061 -1.4264476
-0.26518947 -5.3645992 -1.4367843
-0.28254777 -5.3733864 -1.4393682
-0.29889005 -5.3628273 -1.4367843
-0.31346387 -5.3232875 -1.4264476
-0.33138248 -5.3415599 -1.4316159
-0.35193408 -5.3983316 -1.4471208
-0.36823189 -5.3875613 -1.4445366
-0.38515583 -5.3863778 -1.4445366
-0.40328765 -5.4141126 -1.4522891
-0.41785783 -5.3936291 -1.4471208
-0.43807727 -5.4211001 -1.4548732
-0.45429531 -5.4100714 -1.4522891
-0.47045222 -5.398993 -1.4497049
-0.49088562 -5.4359736 -1.4600415
-0.50616294 -5.4151673 -1.4548732
-0.52503276 -5.4327822 -1.4600415
-0.54113591 -5.4214931 -1.4574573
-0.56014621 -5.4389853 -1.4626256
-0.57926917 -5.4564114 -1.4677939
-0.59535837 -5.444962 -1.4652098
-0.61354166 -5.4526639 -1.4677939
-0.63082504 -5.4604163 -1.4703782
-0.64570028 -5.4392219 -1.4652098
-0.66512167 -5.4563451 -1.4703782
-0.68345928 -5.4638138 -1.4729623
-0.70553786 -5.4999671 -1.4832988
-0.73036748 -5.555191 -1.4988036
-0.75457448 -5.6104441 -1.5143085
-0.77351183 -5.6176167 -1.5168927
-0.79654908 -5.6534219 -1.5272292
-0.81706184 -5.6700144 -1.5323975
-0.82923806 -5.6291909 -1.522061
-0.84260648 -5.5978994 -1.5143085
-0.85920972 -5.5953751 -1.5143085
-0.87326783 -5.5638647 -1.5065562
-0.89379889 -5.5801711 -1.5117244
-0.91132402 -5.5773358 -1.5117244
-0.93262684 -5.6031947 -1.5194768
-0.95282191 -5.6095953 -1.522061
-0.97538203 -5.6351309 -1.5298134
-0.99475819 -5.6415524 -1.5323975
-1.0166088 -5.6671019 -1.54015
-1.0378789 -5.6828866 -1.5453182
0.66393006 -6.0137925 -1.3991425
0.63879997 -5.9577246 -1.3856243
0.61302197 -5.8918676 -1.3698529
0.58864337 -5.8356023 -1.3563346
0.56739706 -5.8181286 -1.3518286
0.54911584 -5.8198824 -1.3518286
0.52552086 -5.7633629 -1.3383102
0.50485057 -5.7358694 -1.3315511
0.48353308 -5.698595 -1.3225389
0.46562779 -5.7000861 -1.3225389
0.44718412 -5.6820168 -1.3180327
0.42786327 -5.6639633 -1.3135267
0.409365 -5.6555619 -1.3112736
0.39092243 -5.6471004 -1.3090206
0.37287712 -5.6287923 -1.3045145
0.35359731 -5.6202741 -1.3022615
0.33593872 -5.6213574 -1.3022615
0.31717685 -5.6029301 -1.2977554
0.30055091 -5.6038465 -1.2977554
0.28196174 -5.5853024 -1.2932492
0.2639527 -5.5764289 -1.2909962
0.24643229 -5.5772305 -1.2909962
0.22811179 -5.5585079 -1.2864902
0.21064785 -5.5591969 -1.2864902
0.19449349 -5.5695343 -1.2887431
0.17699374 -5.570118 -1.2887431
0.15949492 -5.5706463 -1.2887431
0.14199318 -5.5711198 -1.2887431
0.12330176 -5.56182 -1.2864902
0.10564259 -5.5524383 -1.284237
0.089167401 -5.5527272 -1.284237
0.071723633 -5.5529799 -1.284237
0.054182615 -5.5434361 -1.2819841
0.036831502 -5.5533214 -1.284237
0.019350797 -5.5436668 -1.2819841
0.0019311153 -5.5339575 -1.2797309
-0.01448878 -5.5339384 -1.2797309
-0.0318169 -5.5241232 -1.277478
-0.04917153 -5.5239959 -1.277478
-0.066641681 -5.5335565 -1.2797309
-0.084027097 -5.5333195 -1.2797309
-0.10141036 -5.5330281 -1.2797309
-0.1187913 -5.5326824 -1.2797309
-0.13593265 -5.5225425 -1.277478
-0.1532805 -5.5220881 -1.277478
-0.17092904 -5.5313172 -1.2797309
-0.18797539 -5.5210156 -1.277478
-0.20531818 -5.5203981 -1.277478
-0.22169693 -5.5197644 -1.277478
-0.23903561 -5.5190411 -1.277478
-0.2559211 -5.5085301 -1.2752249
-0.27419239 -5.5271606 -1.2797309
-0.29206738 -5.5360017 -1.2819841
-0.30945805 -5.5350566 -1.2819841
-0.32626989 -5.5243311 -1.2797309
-0.34362373 -5.5232787 -1.2797309
-0.36097547 -5.522172 -1.2797309
-0.3789871 -5.5307312 -1.2819841
-0.39636078 -5.5295134 -1.2819841
-0.41348982 -5.5380282 -1.284237
-0.43142846 -5.5562043 -1.2887431
-0.44985268 -5.5547433 -1.2887431
-0.46729878 -5.5533028 -1.2887431
-0.48559174 -5.5615134 -1.2909962
-0.50306028 -5.5599604 -1.2909962
-0.52052516 -5.5583525 -1.2909962
-0.53798622 -5.5566897 -1.2909962
-0.55737674 -5.5743613 -1.2955023
-0.57588768 -5.582274 -1.2977554
-0.59342235 -5.5804372 -1.2977554
-0.61201048 -5.5882306 -1.3000084
-0.63065469 -5.5959616 -1.3022615
-0.64725447 -5.5940661 -1.3022615
-0.66597736 -5.6016798 -1.3045145
-0.68593377 -5.6189017 -1.3090206
-0.70358157 -5.6167192 -1.3090206
-0.7224651 -5.6241446 -1.3112736
-0.74012923 -5.6218472 -1.3112736
-0.75810838 -5.629282 -1.3135267
-0.7757898 -5.6268725 -1.3135267
-0.79482317 -5.6340551 -1.3157797
-0.81391072 -5.6411734 -1.3180327
-0.83162785 -5.6385889 -1.3180327
-0.85514694 -5.6744843 -1.327045
-0.87049955 -5.662292 -1.3247919
-0.8922953 -5.6786246 -1.329298
-0.91321623 -5.6950331 -1.3338041
-0.93267488 -5.7017512 -1.3360572
-0.95279115 -5.7181797 -1.3405633
-0.97338289 -5.7245936 -1.3428164
-0.99967808 -5.7695065 -1.3540815
-1.0810368 -5.9133577 -1.3901304
-1.1031749 -5.9290891 -1.3946364
0.61052233 -6.2716684 -1.2287552
0.58805519 -6.2442393 -1.2230133
0.56309777 -6.187408 -1.2115296
0.54194015 -6.1695914 -1.2077018
0.52089858 -6.1517034 -1.2038739
0.49917737 -6.123961 -1.1981319
0.47793114 -6.0862751 -1.1904762
0.45733267 -6.068172 -1.1866482
0.43685409 -6.0499992 -1.1828204
0.41716895 -6.0415502 -1.1809065
0.40118232 -6.0721426 -1.1866482
0.38104391 -6.0734396 -1.1866482
0.36254531 -6.0844049 -1.1885623
0.34232396 -6.0659146 -1.1847343
0.32432416 -6.0669036 -1.1847343
0.30427626 -6.0482869 -1.1809065
0.28527322 -6.0492129 -1.1809065
0.26669896 -6.059885 -1.1828204
0.24726038 -6.0508862 -1.1809065
0.22935927 -6.0810571 -1.1866482
0.2106334 -6.0620928 -1.1828204
0.19127747 -6.0529146 -1.1809065
0.17170352 -6.0338631 -1.1770786
0.15324321 -6.053997 -1.1809065
0.13316636 -6.0544715 -1.1809065
0.11377475 -6.0352335 -1.1770786
0.096022896 -6.0453582 -1.1789925
0.076906502 -6.0358157 -1.1770786
0.058132216 -6.0556569 -1.1809065
0.038917106 -6.0263648 -1.1751646
0.019984268 -6.0264573 -1.1751646
0.0010495186 -6.016675 -1.1732506
-0.016857473 -6.0362821 -1.1770786
-0.035877999 -6.0460143 -1.1789925
-0.054694042 -6.0262423 -1.1751646
-0.073744513 -6.0358553 -1.1770786
-0.092557304 -6.0257797 -1.1751646
-0.11130607 -6.0156455 -1.1732506
-0.13020305 -6.0152659 -1.1732506
-0.14934343 -6.0246396 -1.1751646
-0.16826849 -6.0241408 -1.1751646
-0.18688844 -6.013772 -1.1732506
-0.20578203 -6.013155 -1.1732506
-0.22503725 -6.0222874 -1.1751646
-0.24290508 -6.0215931 -1.1751646
-0.26182011 -6.0208001 -1.1751646
-0.2811912 -6.0297527 -1.1770786
-0.30013454 -6.0288396 -1.1770786
-0.31855321 -6.0180655 -1.1751646
-0.33855742 -6.0366344 -1.1789925
-0.35751924 -6.0355411 -1.1789925
-0.37709013 -6.0441842 -1.1809065
-0.39607835 -6.0429697 -1.1809065
-0.41505975 -6.0416956 -1.1809065
-0.43544546 -6.0599418 -1.1847343
-0.45269009 -6.0488353 -1.1828204
-0.46987417 -6.0376801 -1.1809065
-0.49227688 -6.0654368 -1.1866482
-0.51132697 -6.0638609 -1.1866482
-0.52952093 -6.0524468 -1.1847343
-0.5511899 -6.0800786 -1.1904762
-0.5693717 -6.0685449 -1.1885623
-0.58938307 -6.0764952 -1.1904762
-0.6084674 -6.0746136 -1.1904762
-0.63158578 -6.1117244 -1.1981319
-0.65078348 -6.1097102 -1.1981319
-0.67211378 -6.1271486 -1.2019598
-0.6913597 -6.1250072 -1.2019598
-0.7095288 -6.1229291 -1.2019598
-0.73224419 -6.1499085 -1.2077018
-0.75156134 -6.1475778 -1.2077018
-0.7696479 -6.1354475 -1.2057878
-0.79017174 -6.1427341 -1.2077018
-0.80946463 -6.1402216 -1.2077018
-0.83161634 -6.1669736 -1.2134435
-0.8523289 -6.1740537 -1.2153575
-0.87309259 -6.1810641 -1.2172714
-0.89250696 -6.1782908 -1.2172714
-0.91477865 -6.1948762 -1.2210994
-0.93570203 -6.2016768 -1.2230133
-0.94961965 -6.1697707 -1.2172714
-0.97159815 -6.1762838 -1.2191855
-0.99877566 -6.2216563 -1.2287552
-1.0214877 -6.2378602 -1.2325832
-1.0642151 -6.380022 -1.2612922
-1.0936029 -6.4248376 -1.2708621
0.54845321 -6.7430153 -1.073985
0.52227187 -6.665844 -1.061442
0.49762505 -6.6182089 -1.0536027
0.48108962 -6.678844 -1.0630099
-0.041265886 -6.7552805 -1.072417
-0.95707256 -6.7670727 -1.08496
-0.9726724 -6.7249336 -1.0786885
-0.99668223 -6.7413855 -1.0818242
-1.047361 -6.9335318 -1.1131815
-1.0724413 -6.9596767 -1.117885
-1.0847578 -6.8877897 -1.10691
-1.1079586 -6.8940988 -1.1084778
-1.1360011 -6.9295692 -1.1147493
-1.1581837 -6.9359097 -1.1163172
-1.1828384 -6.9417663 -1.117885
-1.2113976 -6.9769397 -1.1241565
