# .PCD v0.7 - Point Cloud Data file format
VERSION 0.7
FIELDS x y z
SIZE 4 4 4
TYPE F F F
COUNT 1 1 1
WIDTH 322
HEIGHT 1
VIEWPOINT 0 0 0 1 0 0 0
POINTS 322
DATA ascii
4.3788052 -5.010685 -1.5388315
4.267221 -4.9140706 -1.5050358
4.2199378 -4.8905692 -1.4937705
4.2117505 -4.9104652 -1.4960235
4.1954446 -4.9244041 -1.4960235
4.2303143 -4.9970489 -1.5140479
4.3084302 -5.1858468 -1.559109
4.1565418 -5.0333328 -1.5095417
4.1221681 -5.0237708 -1.5027827
4.1063662 -5.0366955 -1.5027827
4.072124 -5.0268593 -1.4960235
4.0440936 -5.0244484 -1.4915174
4.0222034 -5.0295196 -1.4892644
4.0003219 -5.034503 -1.4870113
3.9844868 -5.0470448 -1.4870113
3.96861 -5.0595384 -1.4870113
3.9526963 -5.0719805 -1.4870113
3.9316635 -5.0759835 -1.4847583
3.9097555 -5.0805893 -1.4825053
3.8937762 -5.0928464 -1.4825053
3.8777559 -5.1050549 -1.4825053
3.8323553 -5.0783267 -1.4712399
3.7930048 -5.0591602 -1.4622278
3.830368 -5.1407061 -1.4825053
3.8199966 -5.1605439 -1.4847583
3.8037639 -5.1725206 -1.4847583
3.7932436 -5.1923113 -1.4870113
3.7778208 -5.2035437 -1.4870113
3.7671549 -5.2232876 -1.4892644
3.7507265 -5.2350969 -1.4892644
3.7455587 -5.2627306 -1.4937705
3.740257 -5.2903819 -1.4982765
3.7292175 -5.3100796 -1.5005296
3.7236667 -5.3377495 -1.5050358
3.7124286 -5.35743 -1.5072888
3.701103 -5.3770919 -1.5095417
3.6951895 -5.4047785 -1.5140479
3.683665 -5.4244213 -1.516301
3.6720545 -5.4440432 -1.518554
3.6603549 -5.4636478 -1.5208071
3.6485703 -5.4832306 -1.5230601
3.6430314 -5.5102868 -1.5275662
3.6470926 -5.5542812 -1.5365783
3.6572151 -5.6058769 -1.5478436
3.6597891 -5.6506853 -1.5568558
3.6367493 -5.6539598 -1.5546027
5.0890803 -5.1408582 -1.4105803
5.0384884 -5.1218357 -1.4010105
4.9812055 -5.0955276 -1.3895268
4.9455438 -5.0891685 -1.383785
4.9090767 -5.083499 -1.3780432
4.8591032 -5.0634861 -1.3684734
4.8160768 -5.0503144 -1.3608176
4.8069396 -5.0725431 -1.3627316
4.7909784 -5.0876207 -1.3627316
4.7816787 -5.1098127 -1.3646455
4.7589183 -5.1176224 -1.3627316
4.7494783 -5.1397562 -1.3646455
4.7200317 -5.1401916 -1.3608176
4.7047582 -5.1541753 -1.3608176
4.695138 -5.1761994 -1.3627316
4.6403227 -5.1463709 -1.3512479
4.5782833 -5.1097527 -1.3378502
4.5491557 -5.1094484 -1.3340224
4.5200725 -5.109014 -1.3301945
4.4975204 -5.1158171 -1.3282806
4.4555964 -5.1003537 -1.3206247
4.3945122 -5.0624418 -1.3072271
4.4298725 -5.1356807 -1.3225386
4.4018373 -5.1338997 -1.3187108
4.3975177 -5.1634126 -1.3225386
4.3495717 -5.1397405 -1.3129689
4.3514519 -5.1766753 -1.3187108
4.3369775 -5.188808 -1.3187108
4.3206544 -5.2024074 -1.3187108
4.2927036 -5.2000651 -1.3148829
4.288795 -5.228703 -1.3187108
4.2723484 -5.2421503 -1.3187108
4.2558575 -5.2555475 -1.3187108
4.1839504 -5.2000661 -1.3014852
4.124692 -5.1595201 -1.2880876
4.090148 -5.1493959 -1.2823458
4.1043539 -5.2007432 -1.2919155
4.1061625 -5.2367845 -1.2976573
4.1077876 -5.2728863 -1.3033992
4.0981331 -5.2928119 -1.3053131
4.0695157 -5.2901015 -1.3014852
4.046917 -5.2950616 -1.2995713
4.0480671 -5.3312011 -1.3053131
4.054944 -5.3752337 -1.3129689
3.9909461 -5.3251133 -1.2976573
3.9516761 -5.3054452 -1.2900015
3.9641817 -5.3572826 -1.2995713
3.9182627 -5.3301697 -1.2900015
3.878345 -5.3107462 -1.2823458
3.8913956 -5.361949 -1.2919155
3.8745325 -5.3741469 -1.2919155
3.8747745 -5.4102316 -1.2976573
3.8691382 -5.4383731 -1.3014852
3.846369 -5.4424863 -1.2995713
3.8236122 -5.4465098 -1.2976573
3.8233266 -5.4826474 -1.3033992
3.8228488 -5.5188379 -1.309141
3.7609844 -5.4661322 -1.2938294
3.7327168 -5.4617138 -1.2900015
3.7265651 -5.4896555 -1.2938294
3.7202756 -5.517611 -1.2976573
3.7138448 -5.5455828 -1.3014852
3.6964056 -5.5572224 -1.3014852
3.685312 -5.576354 -1.3033992
3.6785467 -5.6043153 -1.3072271
3.6726263 -5.6316471 -1.3110549
3.6592634 -5.6520352 -1.3129689
3.6467984 -5.6717582 -1.3148829
3.6448088 -5.7080045 -1.3206247
3.6383734 -5.7353697 -1.3244526
3.641264 -5.7799902 -1.3321085
3.6647305 -5.8579698 -1.34742
3.6877456 -5.9361515 -1.3627316
3.6752706 -5.9554195 -1.3646455
3.6719294 -5.9920421 -1.3703874
3.693903 -6.0706272 -1.3856989
3.7864788 -6.2670207 -1.4278059
3.7667713 -6.2788854 -1.4278059
3.7319582 -6.2653904 -1.4220641
3.7022653 -6.2601867 -1.4182361
3.6527612 -6.2210031 -1.4067525
3.6342866 -6.2318139 -1.4067525
3.6441984 -6.2941656 -1.4182361
3.6586452 -6.3651505 -1.4316338
3.6483605 -6.393662 -1.4354616
3.6535695 -6.447155 -1.4450314
3.6562238 -6.5020123 -1.4546012
3.6644824 -6.5648885 -1.4660848
3.6581106 -6.6021247 -1.4718267
3.6621642 -6.6559458 -1.4813964
3.6600516 -6.7018762 -1.4890522
3.6623671 -6.7564855 -1.4986219
3.6643736 -6.8111758 -1.5081917
3.6660743 -6.8659449 -1.5177615
3.6628692 -6.9121189 -1.5254172
3.6594102 -6.9583411 -1.5330731
3.6647787 -7.0220108 -1.5445567
3.67102 -7.0851431 -1.5560405
5.220027 -5.4073858 -1.1931423
5.1961775 -5.4166307 -1.1915746
5.1859493 -5.4400768 -1.1931423
5.1348739 -5.4204912 -1.1853031
5.016274 -5.3287287 -1.1617851
4.9657745 -5.3083978 -1.1539458
4.9356241 -5.309505 -1.1508101
4.9122181 -5.3177304 -1.1492423
4.8821301 -5.3185849 -1.1461066
4.8396993 -5.303865 -1.1398351
4.8163795 -5.3117256 -1.1382673
4.7873731 -5.3113213 -1.1351315
4.7443061 -5.2969079 -1.1288601
4.721077 -5.3044081 -1.1272923
4.6913018 -5.304419 -1.1241565
4.6680956 -5.3117113 -1.1225886
4.6383924 -5.3114724 -1.119453
4.6152096 -5.3185587 -1.117885
4.5920286 -5.325552 -1.1163172
4.5697794 -5.331655 -1.1147493
4.5328684 -5.3242188 -1.1100458
4.5033617 -5.3233528 -1.10691
4.4856839 -5.3382573 -1.10691
4.464426 -5.343184 -1.1053421
4.4413095 -5.3495846 -1.1037743
4.4254179 -5.3627377 -1.1037743
4.4022861 -5.3689771 -1.1022065
4.3853984 -5.3827796 -1.1022065
4.3684649 -5.3965316 -1.1022065
4.3453007 -5.4025321 -1.1006386
4.3283067 -5.4161568 -1.1006386
4.3051281 -5.4219933 -1.0990707
4.2819571 -5.4277372 -1.0975028
4.264883 -5.4411635 -1.0975028
4.2417006 -5.4467421 -1.095935
4.2255206 -5.4593039 -1.095935
4.2143693 -5.480381 -1.0975028
4.1851406 -5.4778972 -1.0943671
4.1679091 -5.4910192 -1.0943671
4.1506391 -5.5040851 -1.0943671
4.133327 -5.5170979 -1.0943671
4.1287351 -5.5451813 -1.0975028
4.105422 -5.5501833 -1.095935
4.0879636 -5.5630546 -1.095935
4.0704675 -5.5758691 -1.095935
4.0597053 -5.5959163 -1.0975028
4.0305572 -5.5926175 -1.0943671
4.0129662 -5.6052532 -1.0943671
4.0067859 -5.6339288 -1.0975028
3.9833677 -5.6384225 -1.095935
3.9599609 -5.6428246 -1.0943671
3.942215 -5.6552367 -1.0943671
3.9188049 -5.6594748 -1.0927993
3.9122007 -5.6880322 -1.095935
3.8831692 -5.6839848 -1.0927993
3.8763843 -5.712501 -1.095935
3.8529 -5.7164607 -1.0943671
3.8294263 -5.7203307 -1.0927993
3.8114376 -5.7323322 -1.0927993
3.7944124 -5.7436156 -1.0927993
3.7817674 -5.7637658 -1.0943671
3.7646503 -5.7749605 -1.0943671
3.7508435 -5.7957048 -1.095935
3.7326183 -5.8074594 -1.095935
3.7249827 -5.8358073 -1.0990707
3.7182302 -5.8635144 -1.1022065
3.7103167 -5.8918815 -1.1053421
3.7074966 -5.9286313 -1.1100458
3.6992745 -5.9570289 -1.1131815
3.6919537 -5.9847898 -1.1163172
3.6834528 -6.0132022 -1.119453
3.6799407 -6.0500588 -1.1241565
3.6813388 -6.0954061 -1.130428
3.6774089 -6.1323519 -1.1351315
3.6732831 -6.1693325 -1.1398351
3.6639366 -6.197845 -1.1429708
3.6644428 -6.2433968 -1.1492423
3.6608248 -6.2798381 -1.1539458
3.6608663 -6.3255 -1.1602173
3.6557367 -6.3626604 -1.1649209
3.6455176 -6.3912706 -1.1680566
3.6460078 -6.4364338 -1.1743281
3.6440022 -6.4829259 -1.1805995
3.6476784 -6.5374656 -1.1884388
3.6414773 -6.5748115 -1.1931423
3.6505115 -6.6375098 -1.2025495
3.643836 -6.674953 -1.2072531
3.6369646 -6.7124176 -1.2119567
3.6345694 -6.7586036 -1.2182282
3.6319213 -6.8048401 -1.2244996
3.6336398 -6.8598542 -1.2323389
3.6258574 -6.8974619 -1.2370425
3.6270101 -6.9526014 -1.2448819
3.6290751 -7.0071821 -1.2527211
3.6296172 -7.062469 -1.2605604
3.6208718 -7.1002316 -1.265264
3.6297617 -7.1732583 -1.2762389
3.624934 -7.2199316 -1.2825104
3.6286559 -7.2843256 -1.2919177
3.6320107 -7.3488131 -1.3013248
3.6306438 -7.4045258 -1.309164
3.6073654 -7.4158945 -1.309164
3.6312649 -7.5250349 -1.3264107
3.6374559 -7.5987635 -1.3373857
3.6403227 -7.6630478 -1.3467928
3.6428375 -7.7274156 -1.3561999
3.6436429 -7.7925019 -1.3656071
3.6482296 -7.8666282 -1.3765821
3.6482615 -7.9318867 -1.3859893
3.6520157 -8.0062084 -1.3969643
3.6553369 -8.0806322 -1.4079393
3.6582303 -8.1551542 -1.4189144
3.6566751 -8.2207489 -1.4283215
3.6667023 -8.3135242 -1.4424323
3.692009 -8.4426384 -1.4628146
3.6811817 -8.4904404 -1.4690859
3.6778908 -8.5564051 -1.4784931
3.7028391 -8.6853867 -1.4988753
3.7178285 -8.7970467 -1.5161219
3.686357 -8.7995739 -1.5145539
3.6852059 -8.8749599 -1.5255289
5.1973419 -6.029685 -0.97515529
5.1794286 -6.0450792 -0.97515529
5.1529222 -6.0546622 -0.97393948
5.1274657 -6.063242 -0.97272354
5.1137152 -6.0878124 -0.97393948
5.0839686 -6.086833 -0.97150761
5.039465 -6.0722227 -0.96664399
5.015111 -6.0794907 -0.96542811
4.9959869 -6.0952168 -0.96542811
4.9580107 -6.0877919 -0.96178037
4.9638343 -6.134203 -0.96664399
4.9313903 -6.1730251 -0.96785992
3.8124959 -6.4517155 -0.91800779
3.7771385 -6.4379787 -0.91436011
3.7630184 -6.4577327 -0.91557598
3.7526529 -6.4867058 -0.91800779
3.7520289 -6.5328922 -0.92287141
3.7659023 -6.6050057 -0.93138278
3.6599708 -6.5621872 -0.9204396
3.6297214 -6.5562854 -0.91800779
3.6102538 -6.5670257 -0.91800779
3.5896032 -6.5783362 -0.91800779
3.5831015 -6.6157641 -0.92165554
3.5669992 -6.6357307 -0.92287141
3.8376827 -7.4131389 -1.0225756
3.8143761 -7.425158 -1.0225756
3.7442262 -7.4607778 -1.0225756
3.7384655 -7.5080452 -1.0274392
3.7368429 -7.5642476 -1.0335188
3.7349 -7.6205158 -1.0395983
3.7109425 -7.6322107 -1.0395983
3.7128198 -7.6974721 -1.0468937
3.7143235 -7.7628207 -1.0541892
3.7125635 -7.8186383 -1.0602686
3.7147317 -7.8834934 -1.067564
3.7151644 -7.9490776 -1.0748595
3.7110448 -8.0057364 -1.0809389
3.7149003 -8.0804834 -1.0894504
3.7142022 -8.1463022 -1.0967457
3.7131255 -8.2121973 -1.1040412
3.7116745 -8.2781639 -1.1113366
3.7138765 -8.3532724 -1.119848
3.7196486 -8.4375572 -1.1295753
3.7169726 -8.5037718 -1.1368706
3.7257617 -8.597373 -1.1478137
3.7261608 -8.6728735 -1.1563251
3.7354302 -8.7660732 -1.1672682
3.734911 -8.8417692 -1.1757796
3.7416153 -8.9358606 -1.1867228
3.932795 -7.4876938 -0.74004084
3.9092519 -7.5000124 -0.74004084
3.8679159 -7.5326142 -0.7409125
3.9628832 -8.2860165 -0.80367219
3.9254675 -8.2707376 -0.8010571
3.8767543 -8.4364204 -0.81238872
3.8750181 -8.5029488 -0.81761873
3.9057207 -8.6421719 -0.82982194
