# .PCD v0.7 - Point Cloud Data file format
VERSION 0.7
FIELDS x y z
SIZE 4 4 4
TYPE F F F
COUNT 1 1 1
WIDTH 558
HEIGHT 1
VIEWPOINT 0 0 0 1 0 0 0
POINTS 558
DATA ascii
-0.95280445 5.5507975 -1.5065562
-0.93215102 5.5347114 -1.5013878
-0.90846187 5.4994874 -1.4910513
-0.86801368 5.359273 -1.4522891
-0.82239497 5.180697 -1.4031903
-0.80166262 5.1546183 -1.395438
-0.7810998 5.1284609 -1.3876854
-0.76356083 5.1213346 -1.3851013
-0.74557072 5.1044593 -1.379933
-0.72952944 5.1067767 -1.379933
-0.71036178 5.0802169 -1.3721806
-0.69308907 5.0728521 -1.3695964
-0.67675626 5.0653114 -1.3670124
-0.6595915 5.0578327 -1.3644282
-0.64369714 5.0598803 -1.3644282
-0.62779886 5.0618773 -1.3644282
-0.61420977 5.0830059 -1.3695964
-0.60049647 5.1040988 -1.3747647
-0.58315003 5.0866628 -1.3695964
-0.56716549 5.08847 -1.3695964
-0.55206615 5.0901303 -1.3695964
-0.53404796 5.0726252 -1.3644282
-0.5151664 5.0454469 -1.3566757
-0.49836302 5.0374269 -1.3540915
-0.48249289 5.0292673 -1.3515074
-0.45955053 4.9538059 -1.3308344
-0.44312191 4.9456034 -1.3282502
-0.43174538 4.9950933 -1.3411709
-0.41925582 5.0349331 -1.3515074
-0.40266323 5.0265961 -1.3489233
-0.38687071 5.0278358 -1.3489233
-0.37266219 5.0385962 -1.3515074
-0.35839802 5.0493155 -1.3540915
-0.34187827 5.0407786 -1.3515074
-0.32416886 5.012907 -1.343755
-0.30841973 5.0139003 -1.343755
-0.29297826 5.0051498 -1.3411709
-0.27725366 5.0060453 -1.3411709
-0.2620278 5.0165386 -1.343755
-0.24626516 5.0173373 -1.343755
-0.23050249 5.0180864 -1.343755
-0.21473755 5.0187855 -1.343755
-0.19946218 5.009748 -1.3411709
-0.18230523 4.9717345 -1.3308344
-0.16625249 4.9336338 -1.3204976
-0.14898075 4.8761969 -1.3049928
-0.13584484 4.924901 -1.3179135
-0.12075725 4.9059672 -1.3127453
-0.10810894 4.954576 -1.3256661
-0.094319254 5.0031676 -1.3385867
-0.079319254 4.9937668 -1.3360026
-0.064627782 5.0036392 -1.3385867
-0.049782317 5.003809 -1.3385867
-0.034934025 5.0039349 -1.3385867
-0.020049039 4.9943566 -1.3360026
-0.0043572965 4.9943948 -1.3360026
0.010480464 5.004046 -1.3385867
0.024454337 5.0039968 -1.3385867
0.038353838 4.9942493 -1.3360026
0.05404352 4.9941044 -1.3360026
0.068994254 5.003581 -1.3385867
0.084549569 4.993681 -1.3360026
0.10023724 4.9933906 -1.3360026
0.11614813 5.0027084 -1.3385867
0.1314967 5.021656 -1.343755
0.14727201 5.0212183 -1.343755
0.16367297 5.040041 -1.3489233
0.1795059 5.0395021 -1.3489233
0.19445761 5.0389471 -1.3489233
0.21109262 5.0576153 -1.3540915
0.22609791 5.0569668 -1.3540915
0.24244551 5.0658813 -1.3566757
0.26081979 5.1133332 -1.3695964
0.27636006 5.1028423 -1.3670124
0.29073158 5.0730152 -1.3592598
0.30841652 5.1010056 -1.3670124
0.32689348 5.1385746 -1.3773489
0.34046078 5.0989671 -1.3670124
0.3555882 5.0979342 -1.3670124
0.37001166 5.0872216 -1.3644282
0.38656285 5.1053672 -1.3695964
0.40411913 5.1233883 -1.3747647
0.42100263 5.1317215 -1.3773489
0.43794239 5.1399989 -1.379933
0.45493838 5.1482205 -1.3825172
0.47110969 5.1467662 -1.3825172
0.48456013 5.1261106 -1.3773489
0.4987832 5.1053338 -1.3721806
0.51288056 5.0845189 -1.3670124
0.52885145 5.0828824 -1.3670124
0.5437873 5.0715904 -1.3644282
0.55671579 5.0507503 -1.3592598
0.57278603 5.0586753 -1.3618441
0.58979255 5.0664463 -1.3644282
0.60685349 5.0741606 -1.3670124
0.62396872 5.0818172 -1.3695964
0.64234543 5.0990009 -1.3747647
0.66207379 5.1257005 -1.3825172
-0.94844228 5.5311742 -1.2977554
-0.91812801 5.4572639 -1.2797309
-0.87401408 5.2967019 -1.2414291
-0.8262502 5.1070652 -1.1963682
-0.79646814 5.0230317 -1.1760907
-0.77320707 4.9773722 -1.1648256
-0.75756496 4.9797769 -1.1648256
-0.74191779 4.982132 -1.1648256
-0.72572666 4.9746704 -1.1625725
-0.70871717 4.9672809 -1.1603194
-0.69397676 4.9693618 -1.1603194
-0.67704296 4.961864 -1.1580664
-0.66231877 4.963851 -1.1580664
-0.64546388 4.9562459 -1.1558135
-0.62988877 4.9582496 -1.1558135
-0.61311233 4.9505343 -1.1535603
-0.59755534 4.9524364 -1.1535603
-0.57972139 4.9349365 -1.1490542
-0.56507748 4.9366345 -1.1490542
-0.54848683 4.9287024 -1.1468011
-0.53386158 4.9303079 -1.1468011
-0.51735014 4.9222717 -1.1445482
-0.50188476 4.9238725 -1.1445482
-0.48545691 4.915729 -1.142295
-0.47086808 4.9171476 -1.142295
-0.45631734 4.9283042 -1.1445482
-0.43996316 4.9200091 -1.142295
-0.42450762 4.9213667 -1.142295
-0.40904322 4.9226766 -1.142295
-0.39279851 4.9142256 -1.1400421
-0.37735903 4.9154353 -1.1400421
-0.36205459 4.9068165 -1.1377889
-0.3474974 4.9078689 -1.1377889
-0.33207577 4.9089365 -1.1377889
-0.31665087 4.909956 -1.1377889
-0.30062872 4.9012017 -1.135536
-0.28665376 4.9117985 -1.1377889
-0.27068534 4.9029469 -1.135536
-0.25578606 4.9135027 -1.1377889
-0.24034719 4.9142818 -1.1377889
-0.22446294 4.9052801 -1.135536
-0.2090524 4.905961 -1.135536
-0.1944961 4.9065599 -1.135536
-0.17907934 4.9071465 -1.135536
-0.16451731 4.9076567 -1.135536
-0.14880376 4.8984103 -1.1332829
-0.13453707 4.9085698 -1.135536
-0.12083008 4.9089265 -1.135536
-0.10626303 4.9092631 -1.135536
-0.091697387 4.9095569 -1.135536
-0.077128589 4.9098072 -1.135536
-0.06256146 4.9100146 -1.135536
-0.047993779 4.9101787 -1.135536
-0.033423331 4.9102993 -1.135536
-0.018892342 4.9201198 -1.1377889
-0.003440649 4.9298978 -1.1400421
0.011163469 4.9201431 -1.1377889
0.024952354 4.9298358 -1.1400421
0.038642414 4.9200039 -1.1377889
0.054098848 4.9198585 -1.1377889
0.068696104 4.9196763 -1.1377889
0.08415135 4.919436 -1.1377889
0.099605776 4.9191475 -1.1377889
0.11505922 4.9188104 -1.1377889
0.12990984 4.9281869 -1.1400421
0.14539154 4.9277544 -1.1400421
0.1608718 4.9272733 -1.1400421
0.17635044 4.926744 -1.1400421
0.19134499 4.9359341 -1.142295
0.20725872 4.9450431 -1.1445482
0.22193003 4.9444065 -1.1445482
0.23746222 4.9436851 -1.1445482
0.25349006 4.9526443 -1.1468011
0.26904798 4.9518237 -1.1468011
0.28460324 4.950954 -1.1468011
0.3007454 4.9597607 -1.1490542
0.31632546 4.9587913 -1.1490542
0.33190235 4.9577732 -1.1490542
0.34729049 4.9664855 -1.1513072
0.36273327 4.9751506 -1.1535603
0.37823054 4.9837675 -1.1558135
0.39388558 4.9825544 -1.1558135
0.41033509 4.9910026 -1.1580664
0.42684156 4.9993963 -1.1603194
0.44340482 5.0077357 -1.1625725
0.45913485 5.0063181 -1.1625725
0.47582406 5.0243325 -1.1670786
0.49255508 5.0325098 -1.1693317
0.50542426 5.0018568 -1.1625725
0.52012557 4.9905539 -1.1603194
0.53788209 5.0082698 -1.1648256
0.60713851 5.0690403 -1.1805968
0.62543851 5.0864482 -1.1851029
0.64385372 5.1037908 -1.1896091
0.66238415 5.1210675 -1.1941152
0.68268949 5.1577144 -1.2031273
0.69888949 5.1555443 -1.2031273
-0.96765959 5.5501618 -1.0986066
-0.93793172 5.4756145 -1.0832951
-0.88981569 5.2946258 -1.04693
-0.85402316 5.1811819 -1.0239626
-0.82364988 5.0966339 -1.0067371
-0.80149114 5.0604196 -0.99908131
-0.78258049 5.0435143 -0.99525338
-0.76525611 5.0362449 -0.99333948
-0.74798745 5.0289154 -0.99142551
-0.733064 5.0311122 -0.99142551
-0.71863794 5.043108 -0.99333948
-0.69960499 5.0160546 -0.98759758
-0.68384171 5.0182276 -0.98759758
-0.67154306 5.0396929 -0.99142551
-0.65444225 5.0320444 -0.98951161
-0.63862896 5.0340757 -0.98951161
-0.62281179 5.0360575 -0.98951161
-0.60581195 5.0282445 -0.98759758
-0.58886987 5.0203748 -0.98568368
-0.5739724 5.0220995 -0.98568368
-0.55710691 5.014123 -0.98376971
-0.5432831 5.0255122 -0.98568368
-0.52544236 5.0076714 -0.98185581
-0.5097087 5.0092969 -0.98185581
-0.49397001 5.0108738 -0.98185581
-0.47816485 5.0025463 -0.97994184
-0.46244749 5.004024 -0.97994184
-0.44672319 5.0054522 -0.97994184
-0.43015745 4.9970512 -0.97802782
-0.41445521 4.9983783 -0.97802782
-0.3987489 4.9996557 -0.97802782
-0.38229144 4.9910975 -0.97611392
-0.36747941 4.9922099 -0.97611392
-0.35266891 4.993278 -0.97611392
-0.33697891 4.9943614 -0.97611392
-0.32128561 4.9953957 -0.97611392
-0.30619067 5.0061769 -0.97802782
-0.29076648 4.9972649 -0.97611392
-0.27560601 5.0079536 -0.97802782
-0.25987026 5.0087948 -0.97802782
-0.24365424 4.9997835 -0.97611392
-0.22794673 5.000524 -0.97611392
-0.2126531 5.0110216 -0.97802782
-0.19739804 5.0018229 -0.97611392
-0.18168196 5.0024185 -0.97611392
-0.16683723 5.0029359 -0.97611392
-0.15082386 4.9936242 -0.97419995
-0.13627495 5.0038614 -0.97611392
-0.12230186 5.0042224 -0.97611392
-0.10745203 5.0045633 -0.97611392
-0.092603631 5.0048599 -0.97611392
-0.077752039 5.0051131 -0.97611392
-0.062902145 5.0053215 -0.97611392
-0.048051696 5.005486 -0.97611392
-0.033198439 5.0056067 -0.97611392
-0.018347275 5.0056829 -0.97611392
-0.0026199538 5.0057163 -0.97611392
0.012231261 5.005702 -0.97611392
0.026209751 5.0056481 -0.97611392
0.040188041 5.0055556 -0.97611392
0.05602286 5.0152187 -0.97802782
0.070903048 5.0150304 -0.97802782
0.086657852 5.0147829 -0.97802782
0.10261223 5.0242991 -0.97994184
0.11862724 5.0337648 -0.98185581
0.13356218 5.0333905 -0.98185581
0.14966553 5.0427566 -0.98376971
0.16518506 5.0324521 -0.98185581
0.18134694 5.0417171 -0.98376971
0.1963052 5.0411568 -0.98376971
0.21214147 5.0405149 -0.98376971
0.22753784 5.0496688 -0.98568368
0.24340071 5.0489292 -0.98568368
0.25976455 5.0579414 -0.98759758
0.27565324 5.0571003 -0.98759758
0.29210421 5.0660086 -0.98951161
0.30801809 5.0650659 -0.98951161
0.32455546 5.0738683 -0.99142551
0.34049383 5.0728235 -0.99142551
0.35485736 5.0619998 -0.98951161
0.36987501 5.060925 -0.98951161
0.38563386 5.0695915 -0.99142551
0.40155855 5.0683551 -0.99142551
0.41828519 5.0768509 -0.99333948
0.4342325 5.0755119 -0.99333948
0.4493081 5.0643454 -0.99142551
0.46521601 5.0629091 -0.99142551
0.48023587 5.0615063 -0.99142551
0.49421909 5.0404363 -0.98759758
0.50906318 5.0290937 -0.98568368
0.52486002 5.0274696 -0.98568368
0.54065168 5.0257959 -0.98568368
0.55663979 5.0339251 -0.98759758
0.57157326 5.0322514 -0.98759758
0.58965641 5.0499287 -0.99142551
0.60551828 5.0480514 -0.99142551
0.62137419 5.046124 -0.99142551
0.63845408 5.053885 -0.99333948
0.65558898 5.0615878 -0.99525338
0.67189372 5.0693507 -0.99716741
0.68913639 5.0769405 -0.99908131
0.70508265 5.0747504 -0.99908131
0.72378439 5.0919452 -1.0029092
0.74311972 5.1189156 -1.008651
0.7678411 5.1748085 -1.0201348
-0.991359 5.6919637 -0.91719884
-0.95780969 5.5975318 -0.90152019
-0.92059624 5.483633 -0.88270581
-0.85522878 5.1941447 -0.83567005
-0.82316834 5.0993047 -0.81999141
-0.80251294 5.0726004 -0.81528783
-0.78354865 5.0555768 -0.81215209
-0.76617885 5.0482497 -0.81058425
-0.75031656 5.0506315 -0.81058425
-0.73532861 5.0528355 -0.81058425
-0.71805799 5.0453429 -0.80901641
-0.70308596 5.047451 -0.80901641
-0.68722403 5.0496349 -0.80901641
-0.67093658 5.041862 -0.80744857
-0.6550948 5.0439448 -0.80744857
-0.63676161 5.026382 -0.80431283
-0.62217903 5.0381594 -0.80588067
-0.6039874 5.0204778 -0.80274493
-0.58821309 5.0223503 -0.80274493
-0.57330978 5.0240736 -0.80274493
-0.55643302 5.0160336 -0.80117702
-0.54154861 5.0176625 -0.80117702
-0.5257811 5.0193391 -0.80117702
-0.5090127 5.0111408 -0.79960924
-0.49326819 5.0127149 -0.79960924
-0.47745347 5.0043244 -0.79804134
-0.46082345 4.9959655 -0.7964735
-0.44512448 4.9973888 -0.7964735
-0.42942587 4.9987621 -0.7964735
-0.41290385 4.9902439 -0.7949056
-0.39800659 5.0013618 -0.7964735
-0.38304588 5.012435 -0.79804134
-0.36817053 5.0135493 -0.79804134
-0.35399082 5.0244718 -0.79960924
-0.33753964 5.0157046 -0.79804134
-0.32241148 5.0265965 -0.79960924
-0.30661935 5.0275846 -0.79960924
-0.29170176 5.0284724 -0.79960924
-0.27590388 5.0293641 -0.79960924
-0.2601009 5.0302057 -0.79960924
-0.24190028 4.9816747 -0.79176986
-0.22535363 4.9626775 -0.78863418
-0.21101384 4.9929638 -0.79333776
-0.19658715 5.0034366 -0.7949056
-0.180866 5.0040293 -0.7949056
-0.16601649 5.0045438 -0.7949056
-0.15029439 5.0050406 -0.7949056
-0.1354444 5.0054646 -0.7949056
-0.12170643 5.015697 -0.7964735
-0.10703282 5.0259099 -0.79804134
-0.092302084 5.0360804 -0.79960924
-0.077661209 5.0560822 -0.80274493
-0.062660098 5.0562906 -0.80274493
-0.0478446 5.0762057 -0.80588067
-0.03284527 5.0862017 -0.80744857
-0.017823944 5.1060295 -0.81058425
-0.0017882421 5.125813 -0.81371999
0.013419332 5.1257954 -0.81371999
0.027733183 5.1257381 -0.81371999
0.041965798 5.1157646 -0.81215209
0.05803721 5.1156073 -0.81215209
0.073356599 5.125288 -0.81371999
0.089457773 5.1250324 -0.81371999
0.10555808 5.1247263 -0.81371999
0.12189172 5.1342425 -0.81528783
0.13712478 5.1338582 -0.81528783
0.15325256 5.1334023 -0.81528783
0.16937883 5.1328955 -0.81528783
0.18550344 5.132338 -0.81528783
0.1995725 5.102159 -0.81058425
0.2307359 5.1008444 -0.81058425
0.24675952 5.1000943 -0.81058425
0.26227242 5.0894308 -0.80901641
0.27825999 5.0885816 -0.80901641
0.29481512 5.0975423 -0.81058425
0.310828 5.096591 -0.81058425
0.32683787 5.0955892 -0.81058425
0.34284452 5.0945373 -0.81058425
0.35795876 5.0934978 -0.81058425
0.37306988 5.0924134 -0.81058425
0.38742685 5.0814362 -0.80901641
0.40417048 5.0900393 -0.81058425
0.42015931 5.0887446 -0.81058425
0.43698755 5.0972395 -0.81215209
0.45299882 5.0958414 -0.81215209
0.46900561 5.0943933 -0.81215209
0.48505351 5.1028113 -0.81371999
0.50108206 5.1012621 -0.81371999
0.51710564 5.0996628 -0.81371999
0.53312409 5.0980134 -0.81371999
0.5512535 5.115952 -0.81685573
0.56643039 5.1142941 -0.81685573
0.58160222 5.1125908 -0.81685573
0.59995532 5.1303573 -0.81999141
0.61606979 5.1284475 -0.81999141
0.63338697 5.1362886 -0.82155925
0.65075952 5.1440716 -0.82312715
0.66818714 5.1517959 -0.82469499
0.68476927 5.1595817 -0.82626289
0.70363545 5.1769772 -0.82939857
0.72261757 5.1943054 -0.83253431
0.74171567 5.2115655 -0.83567005
0.76285768 5.248436 -0.84194148
-0.90947157 5.4231639 -0.67361104
-0.87148923 5.2986693 -0.65780425
-0.84061873 5.2131877 -0.64686114
-0.81803811 5.1765866 -0.64199752
-0.78810585 5.0908508 -0.6310544
-0.7646687 5.0442328 -0.62497485
-0.74590528 5.0269737 -0.62254304
-0.73384303 5.0488095 -0.62497485
-0.71937352 5.0609179 -0.62619078
-0.70298755 5.0531983 -0.62497485
-0.68844438 5.0652175 -0.62619078
-0.67210585 5.0573983 -0.62497485
-0.65493858 5.0496416 -0.62375897
-0.64031571 5.0615215 -0.62497485
-0.6244123 5.063508 -0.62497485
-0.60731649 5.0555902 -0.62375897
-0.59143186 5.0574732 -0.62375897
-0.57530069 5.0493431 -0.62254304
-0.55943346 5.051126 -0.62254304
-0.54338151 5.0428944 -0.6213271
-0.52650237 5.0347052 -0.62011123
-0.50968242 5.0264587 -0.61889529
-0.49388978 5.0280352 -0.61889529
-0.47802669 5.019598 -0.61767942
-0.46134579 5.0111904 -0.61646348
-0.44559899 5.0126152 -0.61646348
-0.43070039 5.02388 -0.61767942
-0.41164684 4.9856396 -0.6128158
-0.39519486 4.9770136 -0.61159992
-0.38031274 4.9881277 -0.6128158
-0.3647843 4.9793348 -0.61159992
-0.35001197 4.9803948 -0.61159992
-0.33369777 4.9715667 -0.61038405
-0.31807607 4.9725909 -0.61038405
-0.30305609 4.9834728 -0.61159992
-0.28826943 4.9843497 -0.61159992
-0.2720682 4.9753199 -0.61038405
-0.25643504 4.9761505 -0.61038405
-0.24079934 4.9769316 -0.61038405
-0.22516362 4.9776635 -0.61038405
-0.20952569 4.9783463 -0.61038405
-0.19475463 4.9789457 -0.61038405
-0.17911044 4.9795332 -0.61038405
-0.16433363 4.9800429 -0.61038405
-0.14839232 4.970613 -0.60916811
-0.13364446 4.9710312 -0.60916811
-0.11976306 4.971385 -0.60916811
-0.10522029 4.9816422 -0.61038405
-0.090439908 4.9819326 -0.61038405
-0.075807057 4.9921036 -0.61159992
-0.060874511 4.9823813 -0.61038405
-0.0459085 4.9626894 -0.60795224
-0.031306975 4.982655 -0.61038405
-0.016523914 4.9827261 -0.61038405
-0.00086873089 4.9827533 -0.61038405
0.013859018 4.9628825 -0.60795224
0.027773362 4.9727497 -0.60916811
0.041742928 4.9825788 -0.61038405
0.05751026 4.9923477 -0.61159992
0.072466366 5.00208 -0.6128158
0.088005506 4.9919033 -0.61159992
0.10368758 4.9916019 -0.61159992
0.11960594 5.0011749 -0.6128158
0.13444418 5.0007982 -0.6128158
0.15015396 5.000351 -0.6128158
0.16586225 4.9998546 -0.6128158
0.18156891 4.9993091 -0.6128158
0.19679102 5.008666 -0.61403167
0.21252522 5.0080233 -0.61403167
0.22738335 5.0073705 -0.61403167
0.24311332 5.0066314 -0.61403167
0.25935346 5.0157557 -0.61524761
0.2767407 5.0446486 -0.61889529
0.29258755 5.0437541 -0.61889529
0.31024936 5.0725322 -0.62254304
0.32490948 5.051722 -0.62011123
0.34144649 5.0605793 -0.6213271
0.35646001 5.0595441 -0.6213271
0.37147036 5.0584641 -0.6213271
0.3864775 5.0573397 -0.6213271
0.40315109 5.0659952 -0.62254304
0.41988289 5.0745959 -0.62375897
0.4366726 5.0831409 -0.62497485
0.45263958 5.0817442 -0.62497485
0.46951377 5.0901809 -0.62619078
0.48743755 5.1184087 -0.62983847
0.50254309 5.1069741 -0.62862259
0.52159375 5.134995 -0.63227028
0.5366891 5.1234593 -0.6310544
0.55384737 5.1316161 -0.63227028
0.56141019 5.0608935 -0.62375897
0.58091825 5.0986538 -0.62862259
0.59693319 5.0968032 -0.62862259
0.61175668 5.0850482 -0.62740666
0.62772882 5.0831008 -0.62740666
0.64743716 5.1106453 -0.6310544
0.67115992 5.167645 -0.63834983
0.68779719 5.1754699 -0.63956571
0.70539159 5.1831188 -0.64078164
0.72851819 5.2300315 -0.64686114
0.75474715 5.2965031 -0.65537244
-0.84412056 5.574913 -0.49336055
-0.79593438 5.3705969 -0.47505563
-0.75852913 5.2250552 -0.4619807
-0.73510796 5.1780977 -0.45762241
-0.71700007 5.160522 -0.45587909
-0.70882237 5.2219777 -0.46110907
-0.31655148 5.2204289 -0.45762241
-0.29762104 5.1616726 -0.45239246
-0.26671594 5.1932869 -0.45500743
-0.24847922 5.1542978 -0.45152077
-0.23228629 5.1550527 -0.45152077
-0.21650825 5.1657104 -0.45239246
-0.20079362 5.1563754 -0.45152077
-0.18459195 5.156981 -0.45152077
-0.16863494 5.1375928 -0.44977745
-0.15308595 5.1580124 -0.45152077
-0.1375161 5.1484857 -0.45064914
-0.12290098 5.1388903 -0.44977745
-0.10765153 5.1392326 -0.44977745
-0.092401139 5.1395292 -0.44977745
-0.077002868 5.1298203 -0.44890583
-0.061902955 5.139987 -0.44977745
-0.046381738 5.1102638 -0.44716248
0.22520304 5.2849932 -0.46285239
0.23861471 5.2345433 -0.45849407
0.50335479 5.2757931 -0.46372402
0.51894939 5.2642717 -0.46285239
0.52640897 5.1734185 -0.45500743
0.54057992 5.1519241 -0.45326409
0.55783325 5.1601048 -0.45413578
0.5742411 5.1683278 -0.45500743
0.59070283 5.1764994 -0.45587909
0.61044389 5.2042999 -0.45849407
0.62917393 5.2221375 -0.46023738
0.65169001 5.2695684 -0.46459571
0.67701775 5.3366742 -0.47069734
-0.77668649 5.7294421 -0.30716264
-0.74656385 5.6327281 -0.30185759
-0.72502267 5.6053352 -0.30026606
0.56908554 5.5831575 -0.29814404
0.58244747 5.5416174 -0.29602203
-0.32736436 5.729713 -0.10402319
-0.30774385 5.7007618 -0.10347952
-0.28932637 5.6917148 -0.10329829
-0.27096608 5.6826091 -0.10311707
-0.25365868 5.6733994 -0.10293584
-0.23541984 5.6641788 -0.10275462
-0.21822561 5.654861 -0.10257339
-0.2001062 5.6455269 -0.10239217
0.34880397 5.6382933 -0.10239217
0.36682546 5.6571884 -0.10275462
0.38459623 5.6560082 -0.10275462
0.40208411 5.6648149 -0.10293584
0.42405251 5.7333951 -0.10420442
