# .PCD v0.7 - Point Cloud Data file format
VERSION 0.7
FIELDS x y z
SIZE 4 4 4
TYPE F F F
COUNT 1 1 1
WIDTH 797
HEIGHT 1
VIEWPOINT 0 0 0 1 0 0 0
POINTS 797
DATA ascii
-4.0366917 1.9262675 -1.1964588
-4.0045033 1.9263773 -1.1887064
-3.9810476 1.9305173 -1.1835381
-3.9662843 1.9387714 -1.1809539
-3.9168456 1.9298754 -1.1680332
-3.9024496 1.9371922 -1.165449
-3.9053245 1.9530847 -1.1680332
-3.8646638 1.9479508 -1.1576966
-3.8007541 1.9457817 -1.1421918
-3.6553912 1.9731668 -1.111182
-3.6322017 1.9754093 -1.1060137
-3.6009071 1.9722552 -1.0982614
-3.5862343 1.9788917 -1.0956771
-3.5800002 1.9901477 -1.0956771
-3.5484443 1.9872252 -1.0879247
-3.521174 2.01578 -1.0853405
-3.5064557 2.0220056 -1.0827565
-3.4920859 2.0275509 -1.0801723
-3.4690213 2.0287573 -1.075004
-3.464514 2.0554433 -1.0775882
-3.4418135 2.0558054 -1.0724199
-3.4187815 2.0566494 -1.0672517
-3.4123039 2.0673792 -1.0672517
-3.3810532 2.062993 -1.0594991
-3.3663239 2.0685482 -1.0569149
-3.3433797 2.0689461 -1.0517466
-3.3372259 2.0788579 -1.0517466
-3.3224964 2.0841963 -1.0491626
-3.3077643 2.0894656 -1.0465784
-3.2930324 2.0946631 -1.0439943
-3.2864358 2.1049976 -1.0439943
-3.2716875 2.1100767 -1.0414101
-3.2573111 2.1145127 -1.038826
-3.2425652 2.1194508 -1.0362418
-3.2443326 2.1343727 -1.038826
-3.2456651 2.1498885 -1.0414101
-3.2388954 2.160074 -1.0414101
-3.2240739 2.1648529 -1.038826
-3.2332625 2.1857924 -1.0439943
-3.234365 2.2013757 -1.0465784
-3.2513406 2.2279069 -1.0543308
-3.2443259 2.2381098 -1.0543308
-3.2452135 2.2538009 -1.0569149
-3.2385113 2.2634206 -1.0569149
-3.2238791 2.267463 -1.0543308
-3.2482769 2.2999086 -1.0646675
-3.2253029 2.2988873 -1.0594991
-3.233763 2.3202713 -1.0646675
-3.2342885 2.3360765 -1.0672517
-3.2269328 2.3462267 -1.0672517
-3.2195466 2.3563521 -1.0672517
-3.2199056 2.372184 -1.0698357
-3.2046785 2.3765333 -1.0672517
-3.2049372 2.3923688 -1.0698357
-3.2215364 2.4506001 -1.0827565
-3.2214923 2.4665809 -1.0853405
-3.2059295 2.4867752 -1.0853405
-3.2361743 2.5265584 -1.0982614
-3.2054338 2.5188057 -1.0905088
-3.1885469 3.0812953 -1.1861222
-3.1907461 3.1619191 -1.2016271
-3.2013185 3.1923909 -1.2093794
-3.191833 3.2018747 -1.2093794
-3.1947916 3.2261708 -1.2145478
-3.2049673 3.2568493 -1.2223003
-3.20579 3.296586 -1.2300526
-3.1887054 3.2996938 -1.2274685
-3.1983957 3.3305991 -1.2352209
-3.1945851 3.3476207 -1.2378051
-3.1774058 3.3506298 -1.2352209
-3.1933653 3.3887167 -1.2455574
-3.2025137 3.4198859 -1.25331
-3.204915 3.4440749 -1.2584783
-3.1815612 3.4393868 -1.25331
-3.1903541 3.4707007 -1.2610625
-3.198981 3.5021033 -1.2688148
-3.1879637 3.5121355 -1.2688148
-3.1904709 3.5359242 -1.2739831
-3.1922438 3.5603158 -1.2791514
-3.1816683 3.5697699 -1.2791514
-3.176842 3.5869806 -1.2817355
-3.1719401 3.6041942 -1.2843196
-3.1796789 3.6359582 -1.2920722
-3.1999216 3.6823895 -1.3049928
-3.1757126 3.6777987 -1.2998245
-3.1704326 3.6950898 -1.3024087
-3.1776114 3.7270849 -1.3101611
-3.1727836 3.7438674 -1.3127453
-3.1858966 3.7833736 -1.3230819
-3.1808586 3.8002172 -1.3256661
-3.1750801 3.8176193 -1.3282502
-3.193841 3.8648078 -1.3411709
-3.1878128 3.8822892 -1.343755
-3.1756012 3.8922844 -1.343755
-3.1755252 3.9172494 -1.3489233
-3.1874411 3.9573009 -1.3592598
-3.18103 3.9748368 -1.3618441
-3.1812487 3.9993792 -1.3670124
-3.1746593 4.016932 -1.3695964
-3.1799231 4.0496788 -1.3773489
-3.2032025 4.1295433 -1.3980221
-3.1843154 4.1319351 -1.395438
-3.1889381 4.1649284 -1.4031903
-3.1992333 4.2056804 -1.4135269
-3.1918285 4.2234182 -1.4161111
-3.1843455 4.2411489 -1.4186952
-3.1775239 4.2583222 -1.4212793
-3.1813898 4.2915645 -1.4290317
-3.1678927 4.301537 -1.4290317
-3.1657703 4.3270621 -1.4342
-3.1735871 4.4524903 -1.4626256
-3.1651647 4.4703236 -1.4652098
-3.162221 4.496048 -1.4703782
-3.1710019 4.5370841 -1.4807147
-3.1677516 4.5628939 -1.485883
-3.1753387 4.6046333 -1.4962195
-3.1826925 4.6464672 -1.5065562
-3.1851995 4.6798472 -1.5143085
-3.1867137 4.7138395 -1.522061
-3.1988139 4.7639294 -1.5349817
-3.1891925 4.781991 -1.5375658
-3.2123415 4.8478036 -1.5556549
-4.6028848 1.9727985 -1.1580664
-4.5340629 1.9601866 -1.142295
-4.4832296 1.9549487 -1.1310298
-4.4503107 1.9572555 -1.1242707
-4.3996091 1.9514765 -1.1130055
-4.340095 1.9414179 -1.0994872
-4.298449 1.9390192 -1.090475
-4.248332 1.9316009 -1.0792098
-4.2156734 1.9327558 -1.0724505
-4.1833868 1.9329967 -1.0656915
-4.1419678 1.9296712 -1.0566792
-4.1182475 1.9343909 -1.0521733
-4.0857339 1.9348087 -1.045414
-4.0356741 1.9266466 -1.0341487
-4.012043 1.9308665 -1.0296427
-3.9796603 1.9307026 -1.0228835
-3.9473183 1.9303541 -1.0161244
-3.9237561 1.9341314 -1.0116183
-3.9005485 1.9370971 -1.0071121
-3.877357 1.939944 -1.0026062
-3.8538449 1.9433411 -0.99810004
-3.8303499 1.9466099 -0.99359393
-3.7982001 1.9453108 -0.98683482
-3.7920704 1.957233 -0.98683482
-3.768615 1.960146 -0.98232877
-3.7279208 1.9538833 -0.97331649
-3.7303798 1.9701346 -0.97556955
-3.6987121 1.9674686 -0.96881038
-3.6839261 1.9744757 -0.96655738
-3.6605589 1.9767815 -0.96205127
-3.654331 1.988271 -0.96205127
-3.6398716 1.9944223 -0.95979822
-3.6079988 1.9917229 -0.95303911
-3.5932095 1.9983119 -0.95078599
-3.5784137 2.0048294 -0.948533
-3.5551286 2.0064833 -0.94402695
-3.5318685 2.0080106 -0.93952084
-3.4832692 1.9948876 -0.92825556
-3.4769852 2.00582 -0.92825556
-3.4794431 2.0210223 -0.93050867
-3.4814861 2.0368626 -0.93276167
-3.4666767 2.0428429 -0.93050867
-3.4518628 2.0487518 -0.92825556
-3.362134 2.0090089 -0.90572512
-3.3641529 2.024586 -0.90797812
-3.3494446 2.0300944 -0.90572512
-3.3846307 2.0659869 -0.91699028
-3.369823 2.0715086 -0.91473728
-3.3467309 2.0718277 -0.91023117
-3.315762 2.0662909 -0.90347201
-3.3422656 2.0974104 -0.91248417
-3.2944787 2.0818777 -0.90121901
-3.2221627 2.0503738 -0.88319463
-3.2731295 2.0972803 -0.89896595
-3.3156443 2.139246 -0.91248417
-3.3256259 2.1596849 -0.91699028
-3.3269787 2.1754551 -0.9192434
-3.3205085 2.1853178 -0.9192434
-3.3136272 2.1957381 -0.9192434
-3.3391318 2.2277653 -0.92825556
-3.3321171 2.2382441 -0.92825556
-3.2685745 2.2104957 -0.91248417
-3.3099337 2.2536547 -0.92600256
-3.3028378 2.2640414 -0.92600256
-3.2957091 2.2744057 -0.92600256
-3.3045497 2.2958672 -0.93050867
-3.2977235 2.3056612 -0.93050867
-3.2908673 2.3154366 -0.93050867
-3.3074288 2.3426571 -0.93726772
-3.2841878 2.3417227 -0.93276167
-3.2847304 2.3577096 -0.93501472
-3.2694092 2.3623121 -0.93276167
-3.2777293 2.3840342 -0.93726772
-3.2859461 2.4058301 -0.94177383
-3.2705295 2.4103606 -0.93952084
-3.27859 2.432234 -0.94402695
-3.2631264 2.4366918 -0.94177383
-3.2558815 2.4463639 -0.94177383
-3.271493 2.474211 -0.948533
-3.2563844 2.4780061 -0.94627994
-3.2717881 2.5059965 -0.95303911
-3.2638986 2.5162637 -0.95303911
-3.2482791 2.5205331 -0.95078599
-3.255702 2.5427186 -0.95529211
-3.2553582 2.558955 -0.95754522
-3.2549427 2.5752151 -0.95979822
-3.2544587 2.5914967 -0.96205127
-3.2467546 2.6011424 -0.96205127
-3.2309828 2.6052132 -0.95979822
-3.2459381 2.6332018 -0.96655738
-3.237649 2.6433873 -0.96655738
-3.2293291 2.6535449 -0.96655738
-3.2510083 2.688514 -0.97556955
-3.2355278 2.6919162 -0.97331649
-3.2345257 2.7083218 -0.97556955
-3.2334507 2.7247491 -0.97782254
-3.2174447 2.7285917 -0.97556955
-3.2236774 2.7513368 -0.98007566
-3.2224109 2.767797 -0.98232877
-3.2284405 2.7906504 -0.98683482
-3.2196567 2.8007801 -0.98683482
-3.2186646 2.816736 -0.98908782
-3.2244234 2.8397117 -0.99359393
-3.2232769 2.8557267 -0.99584705
-3.2215607 2.8723235 -0.99810004
-3.2197721 2.8889377 -1.0003531
-3.217912 2.9055674 -1.0026062
-3.2092774 2.9151018 -1.0026062
-3.2144866 2.9383156 -1.0071121
-3.2097404 2.9722538 -1.0116183
-3.2009079 2.9817636 -1.0116183
-3.2095804 3.1419563 -1.0386549
-3.2135746 3.1656997 -1.043161
-3.2105331 3.1826382 -1.045414
-3.1936219 3.1858273 -1.043161
-3.1910329 3.2021894 -1.045414
-3.2146671 3.247375 -1.0566792
-3.2044485 3.2574589 -1.0566792
-3.2083936 3.2808836 -1.0611854
-3.1986456 3.2903879 -1.0611854
-3.2018318 3.3144343 -1.0656915
-3.2048967 3.3385348 -1.0701976
-3.1972623 3.3727474 -1.0747037
-3.1893256 3.4069941 -1.0792098
-3.2051492 3.4455321 -1.0882219
-3.1816814 3.4407213 -1.0837158
-3.1906335 3.4722209 -1.090475
-3.1994193 3.5038111 -1.0972341
-3.1687555 3.4921985 -1.090475
-3.2040582 3.5522287 -1.1062464
-3.186379 3.555023 -1.1039933
-3.1758194 3.5644596 -1.1039933
-3.1710627 3.5817144 -1.1062464
-3.1919727 3.6282334 -1.1175116
-3.1933825 3.6529145 -1.1220176
-3.1818898 3.6629298 -1.1220176
-3.1703689 3.6729057 -1.1220176
-3.1778424 3.7050343 -1.1287768
-3.178827 3.7298291 -1.1332829
-3.1740432 3.7466795 -1.135536
-3.1748064 3.7715392 -1.1400421
-3.1823592 3.8033583 -1.1468011
-3.1766226 3.8208301 -1.1490542
-3.1583989 3.8232787 -1.1468011
-3.1710973 3.8633068 -1.1558135
-3.1589453 3.8732493 -1.1558135
-3.1651645 3.9058621 -1.1625725
-3.1773179 3.9461422 -1.1715847
-3.1588197 3.9484963 -1.1693317
-3.1652801 3.9807298 -1.1760907
-3.1527596 3.9906535 -1.1760907
-3.1582551 4.0235295 -1.18285
-3.1522946 4.040565 -1.1851029
-3.1582036 4.072998 -1.1918621
-3.1572828 4.0983372 -1.1963682
-3.1680794 4.1391821 -1.2053804
-3.155061 4.1491141 -1.2053804
-3.1537552 4.1745539 -1.2098866
-3.1523225 4.2000251 -1.2143925
-3.1573219 4.2327895 -1.2211518
-3.1614115 4.2661705 -1.2279109
-3.1653228 4.2996187 -1.23467
-3.1575496 4.3174067 -1.2369231
-3.1611516 4.3509512 -1.2436823
-3.1588697 4.3766618 -1.2481884
-3.1629059 4.4097652 -1.2549474
-3.1716518 4.4514184 -1.2639596
-3.1689076 4.4772663 -1.2684656
-3.1660345 4.50314 -1.2729719
-3.1693978 4.5364747 -1.2797309
-3.1662409 4.5624175 -1.284237
-3.1629522 4.5883846 -1.2887431
-3.1595292 4.6143775 -1.2932492
-3.167747 4.655952 -1.3022615
-3.1640158 4.6820254 -1.3067675
-3.1818686 4.7404804 -1.3202858
-3.1723657 4.7585592 -1.3225389
-3.1797523 4.8004422 -1.3315511
-3.1753662 4.8266859 -1.3360572
-3.1815045 4.8692622 -1.3450693
-3.1927078 4.9200988 -1.3563346
-3.1780965 4.9295497 -1.3563346
-3.1678462 4.9477153 -1.3585876
-3.1679709 4.9823074 -1.3653468
-3.173111 5.025187 -1.374359
-3.2038901 5.1094203 -1.3946364
-3.1981235 5.1360011 -1.3991425
-3.2033708 5.1786113 -1.4081547
-3.1870868 5.1886492 -1.4081547
-3.3137698 5.4309554 -1.4712399
-3.2260108 5.3246808 -1.4396974
-3.1791339 5.2846966 -1.4261791
-3.1924908 5.3448453 -1.4396974
-3.2055032 5.405128 -1.4532156
-3.1983948 5.4319625 -1.4577217
-3.1862295 5.4503961 -1.4599748
-3.1837635 5.4856577 -1.4667339
-3.1820683 5.5204039 -1.4734931
-3.1743889 5.5472851 -1.4779992
-3.1858215 5.608058 -1.4915174
-3.1978898 5.6684008 -1.5050358
-3.223917 5.7543616 -1.5253131
-3.2200274 5.7900062 -1.5320723
-3.2347829 5.8598003 -1.5478436
-4.6186285 1.9805005 -0.97994184
-4.6123834 1.9950019 -0.97994184
-4.5521159 1.9859327 -0.96845812
-4.5099192 1.984411 -0.96080238
-4.4588051 1.9786646 -0.95123255
-4.4256907 1.9806337 -0.94549078
-4.3836608 1.9783789 -0.93783498
-4.3509693 1.9791838 -0.93209308
-4.3001232 1.9723816 -0.92252332
-4.2853422 1.9810145 -0.92060941
-4.252409 1.9820271 -0.91486752
-4.201745 1.9745058 -0.90529782
-4.1866517 1.9834931 -0.90338385
-4.1626863 1.9881749 -0.89955592
-4.129889 1.98847 -0.89381415
-4.1059623 1.9928623 -0.88998628
-4.0644155 1.9884971 -0.88233048
-4.0405416 1.9925748 -0.87850249
-4.0082421 1.9914522 -0.87276071
-3.9935381 1.9989439 -0.87084669
-3.978476 2.0070586 -0.86893278
-3.963402 2.0150983 -0.86701882
-3.9395807 2.0185893 -0.86319089
-3.9244993 2.0264521 -0.86127698
-3.9006991 2.029711 -0.85744911
-3.8595333 2.0237229 -0.84979331
-3.8531568 2.0358374 -0.84979331
-3.8297696 2.0380402 -0.84596545
-3.8146982 2.0454228 -0.84405142
-3.8082528 2.0573978 -0.84405142
-3.7931504 2.0646586 -0.84213752
-3.7697945 2.0664675 -0.83830965
-3.7460992 2.0688117 -0.83448178
-3.7395818 2.0805693 -0.83448178
-3.7330265 2.0923083 -0.83448178
-3.7093413 2.0943732 -0.83065379
-3.7027435 2.1060154 -0.83065379
-3.6875923 2.1127594 -0.82873988
-3.6469331 2.1047089 -0.82108408
-3.6406717 2.1155212 -0.82108408
-3.6255369 2.1219897 -0.81917006
-3.6188531 2.1333685 -0.81917006
-3.5952532 2.1347058 -0.81534219
-3.5720549 2.1352909 -0.81151432
-3.5569198 2.1414409 -0.80960041
-3.5417819 2.1475151 -0.80768639
-3.5182648 2.1484001 -0.80385852
-3.5114973 2.1594436 -0.80385852
-3.5046964 2.1704638 -0.80385852
-3.4815822 2.170469 -0.80003059
-3.4830606 2.1866124 -0.80194461
-3.4595807 2.1870556 -0.79811668
-3.4526923 2.1979144 -0.79811668
-3.429244 2.1981561 -0.79428881
-3.4470603 2.2248876 -0.80003059
-3.4157522 2.2190635 -0.79428881
-3.4087644 2.2297828 -0.79428881
-3.3857369 2.2290933 -0.79046094
-3.3868985 2.2451413 -0.79237485
-3.3879931 2.2612185 -0.79428881
-3.4216051 2.2992237 -0.80385852
-3.4166753 2.3587661 -0.80960041
-3.3850682 2.3526843 -0.80385852
-3.3539443 2.3458405 -0.79811668
-3.3630211 2.3670812 -0.80194461
-3.3715856 2.3889832 -0.80577248
-3.3800457 2.4109623 -0.80960041
-3.364481 2.4158452 -0.80768639
-3.3727846 2.437902 -0.81151432
-3.3730452 2.4542615 -0.81342828
-3.3574002 2.4590459 -0.81151432
-3.3417587 2.4637563 -0.80960041
-3.3576467 2.4917912 -0.81534219
-3.3419392 2.4964528 -0.81342828
-3.3502085 2.5181532 -0.81725615
-3.3422816 2.5286651 -0.81725615
-3.350384 2.5504603 -0.82108408
-3.3579364 2.5729134 -0.82491195
-3.3576093 2.5894432 -0.82682586
-3.349457 2.5999796 -0.82682586
-3.3490074 2.6165318 -0.82873988
-3.3407714 2.6270394 -0.82873988
-3.3401971 2.6436138 -0.83065379
-3.3472307 2.6663249 -0.83448178
-3.339304 2.6762455 -0.83448178
-3.3385198 2.6928844 -0.83639568
-3.3381371 2.7089627 -0.83830965
-3.3372111 2.7256458 -0.84022355
-3.3286324 2.7361159 -0.84022355
-3.3351448 2.7590733 -0.84405142
-3.3194017 2.762676 -0.84213752
-3.3182294 2.7793937 -0.84405142
-3.3094804 2.7898054 -0.84405142
-3.3081851 2.8065379 -0.84596545
-3.31428 2.8296642 -0.84979331
-3.3053761 2.84006 -0.84979331
-3.3187096 2.8696907 -0.85553515
-3.302273 2.8736603 -0.85362124
-3.3158877 2.9028404 -0.85936302
-3.2920229 2.9002659 -0.85553515
-3.3127854 2.9360607 -0.86319089
-3.3181942 2.9595208 -0.86701882
-3.2995331 2.9803114 -0.86701882
-3.3124692 3.0098898 -0.87276071
-3.295754 3.0136571 -0.87084669
-3.2857413 3.0245705 -0.87084669
-3.2959266 3.0713513 -0.87850249
-3.2791023 3.0749762 -0.87658858
-3.2755971 3.2482705 -0.89955592
-3.2653768 3.2585444 -0.89955592
-3.2695487 3.2821252 -0.90338385
-3.244838 3.2789972 -0.89955592
-3.2826936 3.3381639 -0.91295362
-3.265914 3.3408697 -0.91103965
-3.2765088 3.3716614 -0.91678154
-3.2522645 3.3678169 -0.91295362
-3.268851 3.4063456 -0.92060941
-3.2513587 3.4094958 -0.91869545
-3.2608862 3.441066 -0.92443728
-3.2635181 3.465584 -0.92826521
-3.2593215 3.4829853 -0.93017912
-3.2483623 3.4932084 -0.93017912
-3.2646329 3.5316625 -0.93783498
-3.2535224 3.5419004 -0.93783498
-3.2423799 3.5521035 -0.93783498
-3.2443938 3.5768116 -0.94166285
-3.2469113 3.601002 -0.94549078
-3.242131 3.6184955 -0.94740468
-3.2357962 3.7027359 -0.95888835
-3.2370176 3.727706 -0.96271622
-3.2381175 3.752717 -0.96654415
-3.2326999 3.7703235 -0.96845812
-3.2272048 3.7879312 -0.97037202
-3.2286367 3.8124712 -0.97419995
-3.2166443 3.8225946 -0.97419995
-3.2373958 3.9202986 -0.99142551
-3.2250628 3.9304509 -0.99142551
-3.2064979 3.9329555 -0.98951161
-3.2250178 3.9811423 -0.99908131
-3.224802 4.0065475 -1.0029092
-3.2183301 4.0243235 -1.0048232
-3.2124817 4.0415392 -1.0067371
-3.2241027 4.0824218 -1.0143929
-3.2294393 4.115695 -1.0201348
-3.2292845 4.1407394 -1.0239626
-3.2290113 4.1658173 -1.0277905
-3.2278841 4.1914945 -1.0316185
-3.2147012 4.2016139 -1.0316185
-3.2193055 4.2351336 -1.0373603
-3.2178135 4.2608924 -1.0411882
-3.2103028 4.2788305 -1.0431021
-3.209326 4.3040748 -1.04693
-3.2250016 4.35357 -1.0564998
-3.1996741 4.3478694 -1.0526719
-3.1917903 4.3658242 -1.0545858
-3.2184346 4.4314208 -1.0679835
-3.1970234 4.4589748 -1.0698974
-3.2000825 4.49298 -1.0756392
-3.231302 4.567112 -1.0909508
-3.2169387 4.5772405 -1.0909508
-3.2089624 4.5948129 -1.0928649
-3.2057016 4.6210003 -1.0966927
-3.2078769 4.6552939 -1.1024345
-3.21541 4.6977477 -1.1100903
-3.2014582 4.7072668 -1.1100903
-3.208632 4.7498336 -1.1177461
-3.1991615 4.7680421 -1.1196601
-3.2004962 4.8025713 -1.1254019
-3.1970692 4.8284149 -1.1292299
-3.1926713 4.854836 -1.1330577
-3.2042406 4.9059291 -1.1426275
-3.2048354 4.9406757 -1.1483693
-3.2061136 4.9749131 -1.1541111
-3.2116311 5.0180297 -1.1617669
-3.1958516 5.0280938 -1.1617669
-3.2062354 5.0796084 -1.1713367
-3.2006857 5.1062899 -1.1751646
-3.2001894 5.1413178 -1.1809065
-3.2055669 5.1841836 -1.1885623
-3.2046723 5.2193208 -1.1943041
-3.2300601 5.2958417 -1.2096157
-3.2896729 5.4318967 -1.2383249
-3.3484643 5.5683756 -1.2670342
-3.3661745 5.6378598 -1.2804319
-3.3734727 5.6906219 -1.2900015
-3.3456223 5.6842737 -1.2861736
-3.3178425 5.6778083 -1.2823458
-3.2999899 5.6882029 -1.2823458
-3.2634959 5.6639524 -1.2746899
-3.2408135 5.6656566 -1.272776
-3.232693 5.6928797 -1.2766039
-3.2350709 5.7366447 -1.2842597
-3.2428873 5.833508 -1.3014852
-3.248256 5.8866343 -1.3110549
-4.5381522 2.1161747 -0.7949056
-4.4867921 2.1094127 -0.78706634
-4.4622946 2.115037 -0.7839306
-4.4021606 2.1034958 -0.77452344
-4.3688364 2.1044581 -0.76981986
-4.3266668 2.1009161 -0.76354843
-4.3200455 2.1144974 -0.76354843
-4.2690954 2.1062114 -0.75570905
-4.2451396 2.110076 -0.75257337
-4.2211976 2.1138191 -0.74943763
-4.1969023 2.1181693 -0.74630189
-4.1550159 2.1134326 -0.74003047
-4.1307774 2.1174662 -0.73689473
-4.124105 2.1304321 -0.73689473
-4.0648289 2.1160169 -0.72748762
-4.0406694 2.1195998 -0.72435188
-4.0427227 2.136898 -0.72591978
-4.0014925 2.1303198 -0.71964824
-3.9599676 2.1242054 -0.71337682
-3.953274 2.1366365 -0.71337682
-3.9291949 2.1395984 -0.71024108
-3.907407 2.1587849 -0.7086733
-3.8574576 2.147033 -0.70083392
-3.8420787 2.1543117 -0.69926614
-3.8180935 2.156656 -0.69613039
-3.8112998 2.1686394 -0.69613039
-3.7787614 2.1658695 -0.69142681
-3.7975984 2.192544 -0.69613039
-3.76546 2.1889124 -0.69142681
-3.7585652 2.2007306 -0.69142681
-3.7176049 2.1924586 -0.68515533
-3.676733 2.1839528 -0.67888391
-3.6702373 2.1948516 -0.67888391
-3.6464026 2.1961813 -0.67574817
-3.631041 2.202503 -0.67418027
-3.6325326 2.2190473 -0.67574817
-3.6087189 2.2200992 -0.67261249
-3.6017268 2.2314248 -0.67261249
-3.5783291 2.2316499 -0.66947675
-3.4662154 2.3143003 -0.66163743
-3.4589269 2.3251793 -0.66163743
-3.4761431 2.3526406 -0.66634101
-3.4381957 2.3904989 -0.66477311
-3.406812 2.3837032 -0.66006958
-3.4077988 2.3994877 -0.66163743
-3.3921871 2.40447 -0.66006958
-3.3765771 2.4093776 -0.65850168
-3.3850334 2.4314981 -0.66163743
-3.3853819 2.447907 -0.66320533
-3.3936441 2.4701557 -0.66634101
-3.3699343 2.4691298 -0.66320533
-3.3780577 2.4914284 -0.66634101
-3.3781431 2.5079165 -0.66790885
-3.3781595 2.5244284 -0.66947675
-3.3864415 2.5463123 -0.67261249
-3.3626757 2.5450175 -0.66947675
-3.3708248 2.5669501 -0.67261249
-3.3627431 2.577528 -0.67261249
-3.3624489 2.5941117 -0.67418027
-3.3542819 2.6046634 -0.67418027
-3.3616464 2.6273513 -0.67731601
-3.3533762 2.6378984 -0.67731601
-3.3450716 2.6484215 -0.67731601
-3.3599074 2.6773813 -0.68201965
-3.3673592 2.6996951 -0.68515533
-3.374234 2.7226641 -0.68829107
-3.3415656 3.0193365 -0.71494472
-3.3252845 3.022594 -0.71337682
-3.3710372 3.1622939 -0.73375905
-3.3826323 3.1932073 -0.73846263
-3.8661499 3.7165828 -0.85134864
-3.8331604 3.7081091 -0.84664506
-3.8144159 3.7132432 -0.84507722
-3.781565 3.7044752 -0.84037358
-3.4674706 3.4181991 -0.77295554
-3.3795881 3.3525641 -0.75570905
-3.4039884 3.3980517 -0.76354843
-3.3869226 3.4011376 -0.76198053
-3.3825703 3.4193728 -0.76354843
-3.3856578 3.4440696 -0.76668411
-3.3961329 3.4752903 -0.77138776
-3.3858073 3.4853508 -0.77138776
-3.3679821 3.4888642 -0.76981986
-3.3638411 3.506556 -0.77138776
-3.3528073 3.5171075 -0.77138776
-3.3553264 3.5419626 -0.77452344
-3.3712616 3.5812504 -0.78079492
-3.3599949 3.5918233 -0.78079492
-3.3688657 3.624063 -0.78549844
-3.3648 3.6412973 -0.78706634
-3.3600245 3.6591241 -0.78863418
-3.3817987 3.7061391 -0.7964735
-3.4696517 3.8264909 -0.81999141
-3.4516692 3.8294334 -0.81842351
-3.3934956 3.7887616 -0.80744857
-3.306138 3.760648 -0.7949056
-3.2748134 3.7487035 -0.79020208
-3.3119104 3.9121873 -0.81371999
-3.2487431 3.8621082 -0.80117702
-3.3003643 4.0756083 -0.83253431
-3.2813516 4.0782623 -0.83096641
-3.2808578 4.1039786 -0.83410215
-3.2563772 4.0982313 -0.83096641
-3.2618465 4.1316962 -0.83567005
-3.2610419 4.1574645 -0.83880574
-3.2669079 4.1904898 -0.84350938
-3.2544611 4.2001638 -0.84350938
-3.2532978 4.2260203 -0.84664506
-3.246006 4.2440639 -0.8482129
-3.2565589 4.2856946 -0.85448432
-3.2430778 4.2959051 -0.85448432
-3.2414181 4.3218737 -0.85762006
-3.2502213 4.3892169 -0.86702722
-3.2364168 4.3994055 -0.86702722
-3.240061 4.4334736 -0.87173086
-3.2377224 4.4596143 -0.87486655
-3.2468038 4.5018063 -0.88113803
-3.2391865 4.5194464 -0.88270581
-3.2364297 4.545691 -0.88584161
-3.2067475 4.6868467 -0.90152019
-3.1872752 4.6881723 -0.89995229
-3.2161539 4.8590803 -0.92503816
-3.228756 4.9453492 -0.937581
-3.2185755 4.9637556 -0.93914884
-3.2359264 5.0230985 -0.94855601
-3.2201283 5.0332408 -0.94855601
-3.2358737 5.1285467 -0.96266681
-3.2512076 5.1889033 -0.97207391
-3.2453263 5.2158623 -0.97520965
-3.2392349 5.2776766 -0.98304898
-3.238986 5.3125615 -0.98775256
-3.2273934 5.331161 -0.98932046
-3.2252548 5.4819551 -1.0097027
-3.217978 5.5091176 -1.0128384
-3.2384853 5.6228137 -1.0300847
-3.2257082 5.6415334 -1.0316527
-3.2420971 5.7117624 -1.0426277
-3.2493832 5.7643757 -1.050467
-3.2805095 5.8601694 -1.0661457
-4.5170808 2.2629726 -0.61889529
-4.4567871 2.2503088 -0.61159992
-4.4231577 2.2507935 -0.60795224
-4.3983998 2.2556207 -0.60552043
-4.3560209 2.2511985 -0.60065681
-4.3137126 2.2465343 -0.59579319
-4.2890558 2.2508495 -0.59336138
-4.2731891 2.2596719 -0.59214544
-4.2489438 2.26301 -0.58971363
-4.2155757 2.2622659 -0.58606589
-4.1909842 2.2660577 -0.58363408
-4.1664124 2.2697153 -0.58120227
-4.133554 2.2677441 -0.57755458
-4.1003466 2.2663155 -0.57390684
-4.0845351 2.2743564 -0.57269096
-4.0600557 2.2774663 -0.57025915
-4.0355983 2.280443 -0.5678274
-4.0025358 2.278378 -0.56417966
-3.9781363 2.2810676 -0.56174785
-3.9451654 2.2786601 -0.5581001
-3.9126456 2.275387 -0.55445242
-3.8969135 2.2826502 -0.55323648
-3.881175 2.2898371 -0.55202061
-3.8739614 2.3020198 -0.55202061
-3.8585966 2.3084073 -0.55080467
-3.834321 2.3102741 -0.54837286
-3.8100734 2.3120093 -0.54594105
-3.7773833 2.3084395 -0.54229337
-3.770112 2.320296 -0.54229337
-3.7459309 2.3216701 -0.53986156
-3.7306037 2.3275213 -0.53864563
-3.7232735 2.3392291 -0.53864563
-3.6991308 2.3403003 -0.53621382
-3.6833885 2.3465779 -0.53499794
-3.667644 2.3527777 -0.53378201
-3.6602337 2.3642895 -0.53378201
-3.6448817 2.3697283 -0.53256613
-3.6208103 2.3702939 -0.53013432
-3.6054721 2.3755662 -0.52891839
-3.5897202 2.3813937 -0.52770251
-3.5822217 2.3926587 -0.52770251
-3.497824 2.4802654 -0.5252707
-3.4738576 2.4797077 -0.52283889
-3.4741104 2.496402 -0.52405483
-3.4662509 2.5073032 -0.52405483
-3.4744043 2.5298667 -0.52648664
-3.46644 2.5407689 -0.52648664
-3.466428 2.5575385 -0.52770251
-3.4583755 2.5684171 -0.52770251
-3.45029 2.5792685 -0.52770251
-3.4584863 2.6014287 -0.53013432
-3.4423833 2.6062887 -0.52891839
-3.4425316 2.6225054 -0.53013432
-3.4185212 2.6212289 -0.52770251
-3.4259858 2.644084 -0.53013432
-3.4568546 2.6852801 -0.53621382
-3.4327631 2.6838989 -0.53378201
-3.4477158 2.713084 -0.53742975
-3.4469554 2.7300656 -0.53864563
-3.4306009 2.7346933 -0.53742975
-3.422471 2.7448611 -0.53742975
-3.4292786 2.7680676 -0.53986156
-3.4133456 2.7719724 -0.53864563
-3.4199903 2.7952459 -0.54107744
-3.417038 3.3485482 -0.58606589
-3.413568 3.3662372 -0.58728182
-3.4241128 3.3979185 -0.59092951
-3.4134216 3.4086583 -0.59092951
-3.396291 3.4117362 -0.58971363
-3.3989162 3.4370961 -0.59214544
-3.3950579 3.454838 -0.59336138
-3.398665 3.4790959 -0.59579319
-3.3952427 3.4962845 -0.59700906
-3.3911355 3.5140758 -0.598225
-3.3800778 3.5247128 -0.598225
-3.3826821 3.5496864 -0.60065681
-3.3783393 3.5675023 -0.60187268
-3.3739181 3.585326 -0.60308862
-3.3829768 3.6176562 -0.6067363
-3.371594 3.6282673 -0.6067363
-3.3742828 3.6528382 -0.60916811
-3.3819144 3.7533612 -0.61889529
-3.3370001 3.7269943 -0.6128158
-3.3259296 3.7368767 -0.6128158
-3.3190451 5.0164337 -0.7368381
-3.358736 5.215734 -0.75994027
-4.4132495 2.4766011 -0.44280416
-4.370759 2.4708428 -0.43931752
-4.3283491 2.4648421 -0.43583089
-4.2773771 2.4536448 -0.43147254
-4.261023 2.4620857 -0.43060091
-4.2364769 2.4646997 -0.42885759
-4.2115235 2.4679229 -0.42711428
-4.1694336 2.4608865 -0.42362759
-4.1445546 2.463793 -0.42188427
-4.1286788 2.470963 -0.42101261
-4.1123629 2.4787798 -0.42014095
-4.0960402 2.4865167 -0.41926929
-4.0712104 2.4889793 -0.41752598
-4.0633702 2.5017583 -0.41752598
-4.038558 2.5040116 -0.41578266
-4.0142078 2.5054352 -0.41403934
-3.9978831 2.5127318 -0.41316766
-3.9815524 2.5199509 -0.41229603
-3.9568136 2.52174 -0.41055268
-3.9488723 2.5341575 -0.41055268
-3.9241567 2.5357385 -0.40880936
-3.8999143 2.5365069 -0.40706605
-3.8835928 2.5432878 -0.40619436
-3.8760288 2.5548005 -0.40619436
-3.8679841 2.5669639 -0.40619436
-3.8433349 2.5680332 -0.40445104
-3.8269823 2.5745354 -0.40357941
-3.8188758 2.5865448 -0.40357941
-3.8024995 2.5929179 -0.40270773
-3.7861228 2.5992122 -0.4018361
-3.7861338 2.6167569 -0.40270773
-3.7778935 2.6286395 -0.40270773
-3.7619181 2.6341226 -0.4018361
-3.7459414 2.6395357 -0.40096441
-3.6879148 2.6863182 -0.39922109
-3.6392889 2.668437 -0.39486274
-3.5908127 2.6502776 -0.39050448
-3.5664749 2.6496644 -0.38876113
-3.5421779 2.6489232 -0.38701782
-3.5263417 2.6534324 -0.38614616
-3.5179889 2.6644969 -0.38614616
-3.5259149 2.6869991 -0.38788947
-3.5253599 2.7041271 -0.38876113
-3.5168476 2.7151883 -0.38876113
-3.5240319 2.7384496 -0.39050448
-3.5232587 2.7556436 -0.39137611
-3.5224123 2.7728601 -0.3922478
-3.5214911 2.7900996 -0.39311942
-3.5204978 2.8073595 -0.39399111
-3.4311039 3.6244881 -0.43670252
-3.4129601 3.6960025 -0.44018915
-3.4013345 3.7067039 -0.44018915
