# .PCD v0.7 - Point Cloud Data file format
VERSION 0.7
FIELDS x y z
SIZE 4 4 4
TYPE F F F
COUNT 1 1 1
WIDTH 1372
HEIGHT 1
VIEWPOINT 0 0 0 1 0 0 0
POINTS 1372
DATA ascii
2.3672416 5.3119211 -1.5556549
2.3720379 5.2780232 -1.5479023
2.3686693 5.2265511 -1.5349817
2.365001 5.1751523 -1.522061
2.361033 5.1238284 -1.5091401
2.3721564 5.1080389 -1.5065562
2.3881922 5.1005616 -1.5065562
2.4083281 5.101769 -1.5091401
2.4234545 5.0946012 -1.5091401
2.4469109 5.1048107 -1.5143085
2.4629362 5.0970984 -1.5143085
2.4873977 5.1067052 -1.5194768
2.5034285 5.0988655 -1.5194768
2.5322888 5.1169505 -1.5272292
2.5224802 5.0571022 -1.5117244
2.4246972 4.8251691 -1.4445366
2.4092915 4.7572012 -1.4264476
2.4154413 4.7323999 -1.4212793
2.4214592 4.7076073 -1.4161111
2.4220834 4.6746697 -1.4083586
2.4278152 4.6499104 -1.4031903
2.4460979 4.651237 -1.4057745
2.4606977 4.6435294 -1.4057745
2.4752738 4.635776 -1.4057745
2.4806714 4.6109624 -1.4006063
2.4851375 4.5865941 -1.395438
2.4856479 4.5533266 -1.3876854
2.4766634 4.5031719 -1.3747647
2.4627066 4.4446692 -1.3592598
2.4578238 4.4031701 -1.3489233
2.4621747 4.3785863 -1.343755
2.460876 4.3460426 -1.3360026
2.4505856 4.2963338 -1.3230819
2.4440775 4.2555356 -1.3127453
2.4477596 4.2311125 -1.307577
2.4505785 4.2071366 -1.3024087
2.4540062 4.1827526 -1.2972405
2.4523909 4.1500721 -1.289488
2.4505944 4.1174436 -1.2817355
2.4585507 4.1014385 -1.2791514
2.4564457 4.0688844 -1.271399
2.46349 4.0533228 -1.2688148
2.466125 4.0290847 -1.2636465
2.4686327 4.0048699 -1.2584783
2.4550374 3.9564853 -1.2455574
2.4667656 3.9491837 -1.2455574
2.4637296 3.9168832 -1.2378051
2.4553461 3.8764799 -1.2274685
2.4519279 3.8443127 -1.2197161
2.4633236 3.8370206 -1.2197161
2.4596324 3.8049247 -1.2119637
2.4557643 3.7728896 -1.2042112
2.4517193 3.740917 -1.1964588
2.4528182 3.7170701 -1.1912906
2.4537914 3.693253 -1.1861222
2.4492688 3.6614377 -1.1783698
2.4547262 3.6461411 -1.1757855
2.4492779 3.6148493 -1.1680332
2.4442904 3.5831957 -1.1602807
2.4445975 3.5595725 -1.1551125
2.4447803 3.5359831 -1.1499442
2.444226 3.5128543 -1.1447759
2.4386232 3.4814215 -1.1370236
2.4384139 3.4579535 -1.1318552
2.4380817 3.4345212 -1.1266869
2.4370303 3.4115505 -1.1215185
2.4477363 3.4038773 -1.1215185
2.4527533 3.3883457 -1.1189345
2.4463184 3.3572009 -1.111182
2.4562685 3.3499279 -1.111182
2.4553072 3.3266497 -1.1060137
2.4536474 3.303839 -1.1008455
2.4466627 3.2729025 -1.093093
2.4511242 3.2574806 -1.0905088
2.4380155 3.2189605 -1.0801723
2.4481158 3.2112856 -1.0801723
2.4464307 3.1882505 -1.075004
2.4499762 3.1733315 -1.0724199
2.454006 3.1579907 -1.0698357
2.4520118 3.135047 -1.0646675
2.4439225 3.1045563 -1.0569149
2.4411275 3.0821459 -1.0517466
2.4327335 3.0518 -1.0439943
2.4417777 3.0445685 -1.0439943
2.4270599 3.0068142 -1.0336577
2.4486763 3.0141704 -1.038826
2.445904 2.9915054 -1.0336577
2.4486325 2.9767745 -1.0310736
2.4333308 2.939302 -1.0207369
2.4611039 2.9539089 -1.0284895
2.5076137 2.9905767 -1.0439943
2.5543773 3.0269816 -1.0594991
2.5695996 3.0267537 -1.0620834
2.5911167 3.0338078 -1.0672517
2.5943377 3.0183265 -1.0646675
2.6101272 3.0174675 -1.0672517
2.6195941 3.0092525 -1.0672517
2.6285112 3.001467 -1.0672517
2.6315403 2.9859469 -1.0646675
2.6409078 2.9776649 -1.0646675
2.6502492 2.9693537 -1.0646675
2.6660202 2.9682 -1.0672517
2.668854 2.9526429 -1.0646675
2.6716168 2.937098 -1.0620834
2.6803193 2.9291584 -1.0620834
2.69503 2.9287703 -1.0646675
2.7042177 2.9202893 -1.0646675
2.7067928 2.9047122 -1.0620834
2.7092967 2.8891473 -1.0594991
2.685209 2.8454919 -1.0465784
2.5278306 2.6619163 -0.98197484
2.4482434 2.4835351 -0.93287605
2.4624035 2.4831192 -0.93546021
2.4633684 2.4685333 -0.93287605
2.4569941 2.447578 -0.92770779
2.4715366 2.4466431 -0.93029195
2.4654372 2.4253175 -0.92512363
2.4592288 2.4040542 -0.91995537
2.4663508 2.3967469 -0.91995537
2.4669192 2.3822761 -0.91737121
2.5022717 2.4012694 -0.92770779
2.4748476 2.3600624 -0.91478705
2.4752376 2.3456309 -0.91220295
2.4821863 2.3382764 -0.91220295
2.4820619 2.3242984 -0.90961879
2.4893517 2.316489 -0.90961879
2.4824317 2.2955399 -0.90445054
2.4825177 2.2811933 -0.90186638
2.4821427 2.2673023 -0.89928222
2.4677939 2.2400148 -0.89152974
2.4748192 2.2322507 -0.89152974
2.4746258 2.2180173 -0.88894558
2.488796 2.2166569 -0.89152974
2.4957473 2.2088275 -0.89152974
2.50229 2.2014127 -0.89152974
2.5019207 2.1871824 -0.88894558
2.508399 2.1797497 -0.88894558
2.5079229 2.165545 -0.88636148
2.5147138 2.1576555 -0.88636148
2.5214796 2.1497447 -0.88636148
2.5278471 2.1422536 -0.88636148
2.5197859 2.1218569 -0.88119316
2.5338485 2.1201293 -0.88377732
2.5330682 2.1059828 -0.88119316
2.5396719 2.0980144 -0.88119316
2.5313163 2.0777674 -0.8760249
2.5449553 2.0763545 -0.878609
2.5364573 2.0561821 -0.87344074
2.5425467 2.0486474 -0.87344074
2.5414288 2.0346124 -0.87085658
2.5474546 2.0270627 -0.87085658
2.531076 2.0010762 -0.86310416
2.5449469 1.999082 -0.86568832
2.5512147 1.9910769 -0.86568832
2.5421886 1.9712133 -0.86052001
2.5407162 1.9573214 -0.85793591
2.5465124 1.9497744 -0.85793591
2.5449367 1.9359158 -0.85535175
2.543299 1.9220868 -0.85276759
2.5338743 1.9024868 -0.84759933
2.5472505 1.9007374 -0.85018349
2.5532093 1.8927257 -0.85018349
2.5510361 1.8794121 -0.84759933
2.5491326 1.865683 -0.84501517
2.5471678 1.8519845 -0.84243107
2.5529733 1.843973 -0.84243107
2.5587537 1.8359438 -0.84243107
2.5645089 1.827896 -0.84243107
2.5781229 1.8254128 -0.84501517
2.575943 1.811747 -0.84243107
2.5813074 1.8040959 -0.84243107
2.5790269 1.7904685 -0.83984691
2.6002316 1.7937795 -0.84501517
2.605854 1.7856017 -0.84501517
2.6111405 1.7778624 -0.84501517
2.6247151 1.7750621 -0.84759933
2.6302786 1.7668076 -0.84759933
2.6518884 1.7692583 -0.85276759
2.6651781 1.7667198 -0.85535175
2.6626465 1.7530261 -0.85276759
2.6923966 1.7605128 -0.86052001
2.7060158 1.7573073 -0.86310416
2.7439966 1.7697411 -0.87344074
2.7492354 1.7615918 -0.87344074
2.7544501 1.7534268 -0.87344074
2.7762761 1.7550887 -0.878609
2.781776 1.7463583 -0.878609
2.7954464 1.7427213 -0.88119316
2.8088179 1.7395054 -0.88377732
2.8224976 1.735733 -0.88636148
2.8444262 1.7369263 -0.89152974
2.8498688 1.7279819 -0.89152974
2.8635595 1.7240033 -0.89411396
2.8855453 1.7249118 -0.89928222
2.9072633 1.7262068 -0.90445054
2.9293158 1.7268765 -0.90961879
2.9510996 1.7279397 -0.91478705
2.9648652 1.7235152 -0.91737121
2.986999 1.7238495 -0.92253947
3.0007818 1.7192597 -0.92512363
3.0145655 1.7146 -0.92770779
3.0367613 1.7146201 -0.93287605
3.0502613 1.7103271 -0.93546021
3.0556195 1.7007359 -0.93546021
3.1032257 1.7144864 -0.94838095
3.1170669 1.7093737 -0.95096505
3.1306088 1.7047377 -0.95354921
3.1444476 1.6994872 -0.95613337
3.1667972 1.6987332 -0.96130168
3.1976998 1.7023954 -0.9690541
3.2198181 1.7019289 -0.97422242
3.2422583 1.7007804 -0.97939068
3.2729945 1.7045395 -0.9871431
3.3040795 1.7075537 -0.99489552
3.3438113 1.7147985 -1.0052321
3.3491821 1.7042849 -1.0052321
3.3717663 1.7024633 -1.0104004
3.3770981 1.6918623 -1.0104004
3.390753 1.686136 -1.0129845
3.3960335 1.6754752 -1.0129845
3.4183416 1.6738887 -1.0181528
3.4235835 1.6631413 -1.0181528
3.420089 1.6481839 -1.0155686
3.4339657 1.6415976 -1.0181528
3.4562771 1.6396831 -1.0233212
3.4701526 1.6329294 -1.0259053
3.4840193 1.6261055 -1.0284895
3.4891105 1.6151525 -1.0284895
3.5292847 1.6203054 -1.038826
3.5516591 1.617836 -1.0439943
3.5828528 1.6192259 -1.0517466
3.6231847 1.6237651 -1.0620834
3.6547513 1.6241438 -1.0698357
3.7305572 1.6438164 -1.0905088
3.7622602 1.6436912 -1.0982614
3.9674988 1.7045722 -1.1551125
2.3457997 5.6298819 -1.4104077
2.3549457 5.6049323 -1.4059017
2.3535318 5.5526552 -1.3946364
2.3671341 5.5362754 -1.3923833
2.3845148 5.5288115 -1.3923833
2.4086788 5.5395818 -1.3968894
2.4025917 5.4784517 -1.3833711
2.3794413 5.3821902 -1.3608407
2.3804684 5.3390946 -1.3518286
2.3932345 5.3227034 -1.3495754
2.3777583 5.2441716 -1.3315511
2.3739657 5.1923723 -1.3202858
2.3861876 5.1760406 -1.3180327
2.372798 5.1070876 -1.3022615
2.3722992 5.0643163 -1.2932492
2.3881974 5.0568385 -1.2932492
2.3948174 5.0321355 -1.2887431
2.4139502 5.033793 -1.2909962
2.4339929 5.034956 -1.2932492
2.4156551 4.9572182 -1.2752249
2.4140351 4.9146252 -1.2662127
2.4121714 4.8720913 -1.2572005
2.4100645 4.8296185 -1.2481884
2.4287593 4.831151 -1.2504413
2.426311 4.788733 -1.2414291
2.4369128 4.7724104 -1.2391762
2.4340618 4.7300782 -1.2301639
2.4346342 4.6968856 -1.2234048
2.4313347 4.6546707 -1.2143925
2.4315252 4.6215692 -1.2076334
2.4277785 4.5794754 -1.1986213
2.4192009 4.5288577 -1.187356
2.419564 4.4954977 -1.1805968
2.41432 4.4540372 -1.1715847
2.4096217 4.4122272 -1.1625725
2.414078 4.3875628 -1.1580664
2.4136796 4.354393 -1.1513072
2.4083467 4.3127632 -1.142295
2.407553 4.2797017 -1.135536
2.4154382 4.2640619 -1.1332829
2.4095078 4.2226043 -1.1242707
2.4074645 4.1900935 -1.1175116
2.4059753 4.1572118 -1.1107523
2.408489 4.1332188 -1.1062464
2.406667 4.1004248 -1.0994872
2.4096205 4.0760694 -1.0949811
2.4074609 4.0433655 -1.0882219
2.4101303 4.0190711 -1.0837158
2.407634 3.9864595 -1.0769566
2.4093282 3.9626486 -1.0724505
2.4115899 3.9384422 -1.0679445
2.4188373 3.9225538 -1.0656915
2.4201882 3.8988044 -1.0611854
2.4110937 3.8585565 -1.0521733
2.4128263 3.8344705 -1.0476671
2.4040015 3.7939522 -1.0386549
2.4106679 3.7781677 -1.0364019
2.4113376 3.7546027 -1.0318958
2.41254 3.7306464 -1.0273896
2.408299 3.6985548 -1.0206305
2.4145646 3.6828229 -1.0183775
2.4153874 3.6589572 -1.0138714
2.4160843 3.6351228 -1.0093653
2.4166555 3.6113203 -1.0048592
2.4164751 3.5879719 -1.0003531
2.4216433 3.5727215 -0.99810004
2.4218719 3.5490007 -0.99359393
2.4164586 3.5172839 -0.98683482
2.4219542 3.501662 -0.98458177
2.4156349 3.4704709 -0.97782254
2.4153438 3.446907 -0.97331649
2.4149282 3.4233792 -0.96881038
2.4200304 3.4078321 -0.96655738
2.4188018 3.384783 -0.96205127
2.4237337 3.3692582 -0.95979822
2.4285922 3.3537362 -0.95754522
2.433377 3.3382168 -0.95529211
2.4317462 3.3152699 -0.95078599
2.4305754 3.2919381 -0.94627994
2.4287112 3.2690706 -0.94177383
2.4272997 3.2458193 -0.93726772
2.4374847 3.2381778 -0.93726772
2.4299946 3.2072077 -0.93050867
2.43415 3.1918104 -0.92825556
2.4323008 3.1686904 -0.92374945
2.4357359 3.1537488 -0.92149639
2.4276934 3.1230049 -0.91473728
2.4374926 3.1153626 -0.91473728
2.4291844 3.0847263 -0.90797812
2.4383261 3.0775054 -0.90797812
2.4358337 3.054595 -0.90347201
2.4387891 3.0397551 -0.90121901
2.4360855 3.0169179 -0.8967129
2.4455512 3.0092499 -0.8967129
2.442656 2.986469 -0.89220679
2.4391251 2.9641616 -0.88770068
2.4297824 2.9339731 -0.88094157
2.43275 2.9188411 -0.87868851
2.4293852 2.8962548 -0.8741824
2.4321871 2.8811636 -0.87192935
2.4407251 2.8739345 -0.87192935
2.4429128 2.8592725 -0.86967635
2.4391794 2.8368087 -0.86517024
2.4544544 2.8364997 -0.8674233
2.4569552 2.8214271 -0.86517024
2.4588957 2.8067963 -0.86291718
2.4548151 2.7844412 -0.85841107
2.4635508 2.7767153 -0.85841107
2.4592838 2.7544272 -0.85390502
2.44839 2.724946 -0.84714586
2.4504044 2.7100139 -0.8448928
2.4654629 2.7095084 -0.84714586
2.4598653 2.6882377 -0.8426398
2.4744291 2.6880953 -0.8448928
2.4497569 2.6445708 -0.83362752
2.4514096 2.629735 -0.83137453
2.4596591 2.6220205 -0.83137453
2.4545081 2.600111 -0.82686841
2.4559541 2.5853236 -0.82461536
2.4640641 2.577595 -0.82461536
2.4586408 2.5557983 -0.82010925
2.4594378 2.5414908 -0.81785625
2.4606128 2.5267718 -0.8156032
2.4549003 2.5051119 -0.81109709
2.4627581 2.4973872 -0.81109709
2.4632957 2.4831522 -0.80884403
2.4642015 2.4685059 -0.80659097
2.4577074 2.4474339 -0.80208492
2.465384 2.4397008 -0.80208492
2.4730363 2.4319439 -0.80208492
2.4667282 2.4105434 -0.79757881
2.4738696 2.403214 -0.79757881
2.4743977 2.3886635 -0.79532576
2.4748588 2.3741333 -0.7930727
2.4823053 2.3663466 -0.7930727
2.4897268 2.3585367 -0.7930727
2.4896209 2.3444598 -0.7908197
2.4894536 2.3304043 -0.78856665
2.4967623 2.322572 -0.78856665
2.496892 2.3081033 -0.78631359
2.4969559 2.2936566 -0.78406054
2.4893608 2.2730989 -0.77955449
2.4964898 2.2652669 -0.77955449
2.4963579 2.2508883 -0.77730137
2.5106733 2.2495368 -0.77955449
2.5031745 2.2286804 -0.77504832
2.4955697 2.2078938 -0.7705422
2.5094261 2.2069135 -0.77279526
2.5090106 2.1926079 -0.7705422
2.5155048 2.1851542 -0.7705422
2.5149822 2.1708744 -0.76828915
2.5217898 2.1629627 -0.76828915
2.5211573 2.1487098 -0.76603615
2.5200877 2.1349223 -0.7637831
2.5193286 2.1207204 -0.76153004
2.5185053 2.1065443 -0.75927699
2.5251107 2.0986218 -0.75927699
2.524179 2.0844748 -0.75702393
2.530715 2.0765345 -0.75702393
2.5293148 2.0628591 -0.75477087
2.5357831 2.0549026 -0.75477087
2.5266936 2.0351467 -0.75026482
2.5254679 2.021111 -0.74801177
2.5314536 2.0136089 -0.74801177
2.530123 1.9996053 -0.74575871
2.5363925 1.9916466 -0.74575871
2.5349553 1.9776757 -0.74350566
2.5411558 1.969702 -0.74350566
2.5318928 1.94982 -0.73899961
2.5299301 1.9363775 -0.73674655
2.5437565 1.9343172 -0.73899961
2.5420468 1.9204434 -0.73674655
2.5402753 1.9065992 -0.73449349
2.5459211 1.8990538 -0.73449349
2.5440466 1.8852454 -0.73224044
2.5574741 1.8834662 -0.73449349
2.5555153 1.8696698 -0.73224044
2.5534954 1.8559041 -0.72998738
2.5672123 1.8535761 -0.73224044
2.5651059 1.8398235 -0.72998738
2.5708733 1.8317558 -0.72998738
2.5766151 1.8236701 -0.72998738
2.5823317 1.8155664 -0.72998738
2.587707 1.8078966 -0.72998738
2.6093824 1.8108678 -0.73449349
2.590682 1.7865244 -0.72773439
2.6043198 1.7838826 -0.72998738
2.6176553 1.7816297 -0.73224044
2.6232398 1.7733972 -0.73224044
2.628798 1.7651473 -0.73224044
2.642436 1.7622856 -0.73449349
2.6476531 1.7544378 -0.73449349
2.6612904 1.7514675 -0.73674655
2.6667798 1.743098 -0.73674655
2.6722424 1.7347116 -0.73674655
2.6858678 1.7315872 -0.73899961
2.707402 1.7341204 -0.74350566
2.7125354 1.7260796 -0.74350566
2.7179446 1.7175492 -0.74350566
2.7233269 1.7090023 -0.74350566
2.7534888 1.7158967 -0.75026482
2.7751358 1.7179761 -0.75477087
2.7888193 1.7143514 -0.75702393
2.8025074 1.7106576 -0.75927699
2.8161998 1.706895 -0.76153004
2.8382437 1.7080867 -0.76603615
2.8519592 1.7041594 -0.76828915
2.857003 1.6956902 -0.76828915
2.8874977 1.7015451 -0.77504832
2.9093509 1.702813 -0.77955449
2.9315341 1.7034545 -0.78406054
2.9537497 1.7039737 -0.78856665
2.9675426 1.6995279 -0.7908197
2.9728673 1.6901966 -0.7908197
2.9951322 1.690426 -0.79532576
3.0341306 1.7005858 -0.80433798
3.0820272 1.7147298 -0.8156032
3.1044564 1.7144592 -0.82010925
3.1269143 1.7140641 -0.82461536
3.1319861 1.704779 -0.82461536
3.1458983 1.6995621 -0.82686841
3.0481851 1.6344223 -0.79983187
3.0447037 1.6202613 -0.79757881
3.0839555 1.6294261 -0.80659097
3.140831 1.646876 -0.82010925
3.1802716 1.655545 -0.82912147
3.2200818 1.6634316 -0.83813369
3.2599723 1.671085 -0.84714586
3.3086264 1.6829206 -0.85841107
3.3225949 1.676908 -0.86066413
3.3626931 1.6839112 -0.86967635
3.4112973 1.6956097 -0.88094157
3.4428217 1.6978117 -0.88770068
3.4653459 1.6961554 -0.89220679
3.4881861 1.6937721 -0.8967129
3.5022674 1.6870338 -0.89896595
3.5339227 1.6886243 -0.90572512
3.5477204 1.6823061 -0.90797812
3.5706208 1.6794456 -0.91248417
3.6200261 1.6888151 -0.92374945
3.6606829 1.6937991 -0.93276167
3.7368262 1.7147987 -0.95078599
3.821701 1.740039 -0.97106349
3.8446052 1.7367136 -0.97556955
3.8767171 1.7365757 -0.98232877
3.8821535 1.7243884 -0.98232877
3.8964679 1.7161105 -0.98458177
3.90184 1.7038612 -0.98458177
3.9161146 1.6954657 -0.98683482
3.9390326 1.6915278 -0.99134094
3.9443274 1.6791445 -0.99134094
3.9765117 1.6781087 -0.99810004
4.0267053 1.6844074 -1.0093653
2.3586149 5.8114777 -1.2230133
2.3619821 5.7677073 -1.2153575
2.3725936 5.742116 -1.2115296
2.3566315 5.6530986 -1.1943041
2.3619835 5.618937 -1.1885623
2.3681285 5.5843801 -1.1828204
2.3702195 5.5408163 -1.1751646
2.3759489 5.5063066 -1.1694227
2.3922758 5.4992328 -1.1694227
2.4292583 5.5366306 -1.1789925
2.4417052 5.5204225 -1.1770786
2.3990595 5.3782673 -1.1483693
2.3837314 5.2990947 -1.1330577
2.3882029 5.2647643 -1.1273159
2.3802345 5.2036815 -1.1158322
2.3924596 5.1872649 -1.1139182
2.3912916 5.1445413 -1.1062624
2.4032769 5.1281161 -1.1043485
2.377445 5.0317965 -1.085209
2.367048 4.9715486 -1.0737252
2.377543 4.9556541 -1.0718113
2.3888261 4.9393244 -1.0698974
2.3914285 4.9053278 -1.0641556
2.3895121 4.862555 -1.0564998
2.3917069 4.8286381 -1.0507579
2.3937125 4.7947559 -1.0450162
2.3946977 4.7613268 -1.0392742
2.3963311 4.7275162 -1.0335324
2.3933105 4.6850014 -1.0258765
2.3945396 4.6512799 -1.0201348
2.3992929 4.6267281 -1.0163069
2.4047246 4.6017699 -1.0124789
2.4000814 4.5598726 -1.0048232
2.400598 4.5262966 -0.99908131
2.400928 4.4927635 -0.99333948
2.4010708 4.4592724 -0.98759758
2.4002545 4.4262443 -0.98185581
2.404736 4.4014544 -0.97802782
2.4043529 4.3680825 -0.97228605
2.4037838 4.3347564 -0.96654415
2.4030294 4.3014774 -0.96080238
2.4020896 4.2682457 -0.95506048
2.4099038 4.2525611 -0.95314658
2.408654 4.2193966 -0.94740468
2.4113801 4.1952124 -0.94357675
2.4097941 4.1621342 -0.93783498
2.4073031 4.1295271 -0.93209308
2.4103251 4.1050158 -0.92826521
2.4132168 4.0805268 -0.92443728
2.4109559 4.0476274 -0.91869545
2.4085121 4.0147834 -0.91295362
2.4109616 3.9903953 -0.90912575
2.4125896 3.9664528 -0.90529782
2.4096575 3.9337447 -0.89955592
2.4168508 3.9178019 -0.89764208
2.4232864 3.9022753 -0.89572805
2.4192462 3.8701 -0.88998628
2.4157062 3.8375611 -0.88424438
2.4172404 3.8133731 -0.88041645
2.4239275 3.7974868 -0.87850249
2.4192681 3.7655053 -0.87276071
2.420423 3.7414045 -0.86893278
2.4214506 3.7173338 -0.86510491
2.4223514 3.6932933 -0.86127698
2.4231246 3.6692846 -0.85744911
2.4183362 3.6371338 -0.85170722
2.4297509 3.6295185 -0.85170722
2.4240563 3.5978734 -0.84596545
2.4292123 3.5825415 -0.84405142
2.4293873 3.5586796 -0.84022355
2.4294364 3.534852 -0.83639568
2.4293602 3.5110598 -0.83256775
2.4341583 3.4957809 -0.83065379
2.4338608 3.4720423 -0.82682586
2.4334378 3.4483404 -0.82299799
2.4328907 3.4246755 -0.81917006
2.4316251 3.4014723 -0.81534219
2.4365661 3.38585 -0.81342828
2.4356749 3.3622811 -0.80960041
2.4404426 3.3466821 -0.80768639
2.444555 3.3315134 -0.80577248
2.4375153 3.3001318 -0.80003059
2.4355867 3.2771294 -0.79620272
2.4458699 3.2694619 -0.79620272
2.4443209 3.2460802 -0.79237485
2.4426491 3.2227409 -0.78854692
2.4468083 3.2072477 -0.78663301
2.4508944 3.1917601 -0.78471905
2.4483519 3.1689403 -0.78089112
2.4522698 3.1534846 -0.77897716
2.4621649 3.1457648 -0.77897716
2.453814 3.1148841 -0.77323538
2.4508522 3.0922058 -0.76940745
2.4544337 3.0768178 -0.76749349
2.4574084 3.0618675 -0.76557958
2.4546802 3.0388615 -0.76175165
2.4580235 3.023519 -0.75983775
2.4550793 3.0005889 -0.75600976
2.4639714 2.9932914 -0.75600976
2.4608395 2.9704192 -0.75218189
2.4701591 2.9626737 -0.75218189
2.4668362 2.9398611 -0.74835402
2.4697275 2.9245977 -0.74644005
2.4783938 2.9172573 -0.74644005
2.4679077 2.887507 -0.74069822
2.4705665 2.8722985 -0.73878425
2.4795778 2.8645227 -0.73878425
2.4756706 2.8419173 -0.73495638
2.4776227 2.8271775 -0.73304242
2.4735081 2.8046575 -0.72921455
2.4757919 2.7895319 -0.72730058
2.4780049 2.7744198 -0.72538662
2.4801476 2.7593215 -0.72347265
2.4756358 2.736958 -0.71964478
2.4842219 2.7291672 -0.71964478
2.4852061 2.7149792 -0.71773082
2.4932508 2.7075937 -0.71773082
2.5017445 2.6997476 -0.71773082
2.5035198 2.6846964 -0.71581692
2.5052254 2.6696608 -0.71390295
2.4933832 2.6403687 -0.70816106
2.5016658 2.6325226 -0.70816106
2.5031402 2.6175566 -0.70624709
2.5045452 2.6026077 -0.70433319
2.5054295 2.5881131 -0.70241922
2.4998503 2.5661678 -0.69859135
2.5078998 2.5583017 -0.69859135
2.5090313 2.5434232 -0.69667739
2.516567 2.5359674 -0.69667739
2.5106504 2.5141585 -0.69284946
2.511143 2.4997735 -0.69093555
2.5189838 2.4918723 -0.69093555
2.4918027 2.4495425 -0.68136579
2.4784226 2.4211264 -0.67562395
2.520802 2.4479513 -0.68519372
2.5072918 2.4195728 -0.67945188
2.5219648 2.4184775 -0.68136579
2.5153396 2.3970001 -0.67753792
2.5157306 2.3823373 -0.67562395
2.5156415 2.368135 -0.67370999
2.5154903 2.3539538 -0.67179608
2.5156851 2.3393559 -0.66988212
2.5230222 2.3314409 -0.66988212
2.5231047 2.3168647 -0.66796815
2.5299675 2.3093684 -0.66796815
2.5372102 2.3014088 -0.66796815
2.5298467 2.2802837 -0.66414028
2.515064 2.2526791 -0.65839839
2.5074649 2.2317159 -0.65457052
2.5365205 2.2433348 -0.66031235
2.5284224 2.2228374 -0.65648443
2.5280013 2.208426 -0.65457052
2.5271318 2.1944802 -0.65265656
2.5340135 2.1865301 -0.65265656
2.5259676 2.165781 -0.64882863
2.5327594 2.1578348 -0.64882863
2.5391505 2.1503105 -0.64882863
2.5383832 2.1360035 -0.64691472
2.5300217 2.1154263 -0.64308679
2.5442045 2.11374 -0.64500076
2.5432632 2.0994883 -0.64308679
2.5422575 2.0852633 -0.64117289
2.5408261 2.0715091 -0.63925892
2.5473216 2.0635164 -0.63925892
2.5381429 2.0436385 -0.63543105
2.5445507 2.0356543 -0.63543105
2.542897 2.021987 -0.63351709
2.5415349 2.0079038 -0.63160312
2.5323889 1.9877887 -0.62777525
2.546361 1.9858593 -0.62968916
2.5603459 1.9838613 -0.63160312
2.5587881 1.969821 -0.62968916
2.5646214 1.9622202 -0.62968916
2.5707734 1.9541534 -0.62968916
2.5612347 1.9342375 -0.62586129
2.5672987 1.9261814 -0.62586129
2.5730026 1.9185556 -0.62586129
2.586904 1.9163053 -0.62777525
2.5767701 1.8969833 -0.62394732
2.5906391 1.894673 -0.62586129
2.5886383 1.8807557 -0.62394732
2.5865753 1.8668698 -0.62203342
2.5844507 1.8530155 -0.62011945
2.5902593 1.844887 -0.62011945
2.6040549 1.8424094 -0.62203342
2.5937698 1.8229318 -0.61820549
2.59112 1.8096082 -0.61629158
2.604857 1.8070537 -0.61820549
2.6102071 1.7993168 -0.61820549
2.5591564 1.7522912 -0.60480785
2.5318847 1.7226053 -0.59715205
2.5942099 1.7531124 -0.61054969
2.6241534 1.7613642 -0.61629158
2.6378407 1.7585558 -0.61820549
2.6594124 1.761562 -0.62203342
2.6895328 1.7693818 -0.62777525
2.7032948 1.7662923 -0.62968916
2.7170639 1.763134 -0.63160312
2.73909 1.7652231 -0.63543105
2.7360494 1.751796 -0.63351709
2.7163901 1.7278665 -0.62777525
2.7384014 1.7298077 -0.63160312
2.7687659 1.7368437 -0.63734496
2.7742088 1.7281367 -0.63734496
2.804363 1.7353926 -0.64308679
2.8599761 1.7574054 -0.65457052
2.865483 1.7484117 -0.65457052
2.8764119 1.730373 -0.65457052
2.9323924 1.751527 -0.66605425
2.9291348 1.7378107 -0.66414028
2.8922949 1.7036921 -0.65457052
2.9481678 1.7248415 -0.66605425
2.9790339 1.7303603 -0.67179608
3.3347497 1.7352211 -0.73304242
3.2704158 1.6887106 -0.71773082
3.2407639 1.6605245 -0.71007502
3.2634633 1.6592318 -0.71390295
3.2949491 1.6622338 -0.71964478
3.335263 1.6694472 -0.72730058
3.3753617 1.677013 -0.73495638
3.4246318 1.6880985 -0.74452609
3.4560752 1.6908702 -0.75026792
3.48786 1.6928617 -0.75600976
3.5196917 1.6946696 -0.76175165
3.5692818 1.7047548 -0.77132136
3.6098013 1.7109727 -0.77897716
3.6240413 1.7037996 -0.78089112
3.6649582 1.708998 -0.78854692
3.8094451 1.7473181 -0.81725615
3.8414128 1.7482045 -0.82299799
3.87342 1.7489161 -0.82873988
3.9057701 1.7487715 -0.83448178
3.9830105 1.7683547 -0.84979331
3.9885464 1.7558333 -0.84979331
4.0839982 1.7825578 -0.86893278
2.3371837 5.7557893 -0.98618472
2.332788 5.6935849 -0.97677755
2.3393438 5.6588464 -0.97207391
2.3533084 5.642354 -0.97050613
2.3738678 5.6444507 -0.97207391
2.403161 5.6642408 -0.97677755
2.4248295 5.6657424 -0.97834539
2.4465318 5.6671643 -0.97991329
2.4751596 5.6870475 -0.98461682
2.489044 5.6702008 -0.98304898
2.5178466 5.6898851 -0.98775256
2.5357094 5.6819468 -0.98775256
2.5535471 5.6739526 -0.98775256
2.3387132 5.1532731 -0.89838451
2.3384519 5.1099782 -0.89211303
2.3420799 5.0757036 -0.88740945
2.3363068 5.0239549 -0.87957013
2.3604636 5.0344748 -0.88270581
2.3593855 4.9913182 -0.87643439
2.3487012 4.9307976 -0.86702722
2.3462265 4.8881917 -0.8607558
2.3529685 4.8630161 -0.85762006
2.3682344 4.8555999 -0.85762006
2.370405 4.821547 -0.85291654
2.3723848 4.787528 -0.8482129
2.3741748 4.7535448 -0.84350938
2.3705118 4.7111893 -0.83723783
2.3808339 4.6949105 -0.83567005
2.3775935 4.6522303 -0.82939857
2.3786306 4.6183972 -0.82469499
2.378679 4.5850191 -0.81999141
2.3839202 4.560019 -0.81685573
2.3836346 4.5267091 -0.81215209
2.3839569 4.4930253 -0.80744857
2.3840909 4.4593844 -0.80274493
2.3887212 4.4344826 -0.79960924
2.3877394 4.4013319 -0.7949056
2.3826075 4.3591437 -0.78863418
2.3915265 4.3429861 -0.78706634
2.390785 4.3095422 -0.7823627
2.3946757 4.2847676 -0.77922702
2.3887434 4.2427988 -0.77295554
2.3867092 4.209918 -0.76825202
2.3950253 4.1938224 -0.76668411
2.3976116 4.1695743 -0.76354843
2.4007986 4.1449289 -0.76041269
2.3931847 4.1036615 -0.75414127
2.391058 4.0705752 -0.74943763
2.3988054 4.0545435 -0.74786979
2.4014204 4.0300188 -0.74473411
2.3937399 3.9885814 -0.73846263
2.4062586 3.9810417 -0.73846263
2.4026582 3.9485731 -0.73375905
2.3995702 3.9157429 -0.72905546
2.4014864 3.8913758 -0.72591978
2.4025986 3.8674545 -0.72278404
2.4035892 3.8435612 -0.71964824
2.4103899 3.8276339 -0.71808046
2.4012463 3.7866797 -0.71180898
2.4078152 3.7707932 -0.71024108
2.408313 3.747016 -0.7071054
2.4147067 3.7311404 -0.70553756
2.4102402 3.6987121 -0.70083392
2.4110122 3.6746068 -0.69769824
2.4116566 3.6505332 -0.69456249
2.4121737 3.6264923 -0.69142681
2.4180591 3.6106904 -0.68985897
2.4122019 3.5789304 -0.68515533
2.4117217 3.5554109 -0.68201965
2.4173095 3.5396607 -0.68045175
2.4116318 3.5076339 -0.67574817
2.4170179 3.4919195 -0.67418027
2.4217234 3.4766288 -0.67261249
2.4269629 3.4609172 -0.67104459
2.432128 3.4452074 -0.66947675
2.4314971 3.4214487 -0.66634101
2.4358928 3.4061856 -0.66477311
2.4350412 3.3824856 -0.66163743
2.4340649 3.3588245 -0.65850168
2.4271436 3.3272245 -0.65379816
2.4311604 3.3120468 -0.65223026
2.4298155 3.288506 -0.64909452
2.4336693 3.2733564 -0.64752668
2.4380233 3.2577875 -0.64595884
2.4423039 3.2422235 -0.644391
2.4465101 3.2266648 -0.6428231
2.4566348 3.2189631 -0.6428231
2.4486861 3.1877325 -0.63811946
2.4460542 3.1648242 -0.63498378
2.4499207 3.1493289 -0.63341594
2.4537137 3.1338403 -0.63184804
2.4574339 3.1183593 -0.6302802
2.4544034 3.0955765 -0.62714452
2.4579561 3.0801308 -0.62557662
2.460901 3.0651231 -0.62400877
2.4581034 3.0420129 -0.62087303
2.4614167 3.0266132 -0.61930513
2.4646573 3.0112228 -0.61773729
2.4610248 2.9886487 -0.61460155
2.4640996 2.9732981 -0.61303371
2.4671025 2.9579577 -0.61146587
2.4700332 2.9426279 -0.60989803
2.4665189 2.9197643 -0.60676229
2.4687753 2.9049075 -0.60519445
2.4709654 2.890063 -0.60362655
2.4800324 2.8822861 -0.60362655
2.476145 2.8595483 -0.60049087
2.4851162 2.8517551 -0.60049087
2.4805453 2.8295159 -0.59735513
2.4828885 2.8143032 -0.59578729
2.4917176 2.8064892 -0.59578729
2.4873614 2.7839174 -0.59265155
2.4894917 2.7687454 -0.59108371
2.4915512 2.7535875 -0.58951581
2.4935403 2.7384439 -0.58794796
2.4945078 2.7241859 -0.58638012
2.5025795 2.7167728 -0.58638012
2.5111022 2.7088974 -0.58638012
2.5061262 2.6865513 -0.58324438
2.5077944 2.6714637 -0.58167648
2.5161746 2.6635721 -0.58167648
2.5177252 2.6484962 -0.58010864
2.5192063 2.6334369 -0.57854074
2.5206175 2.6183941 -0.5769729
2.5215046 2.6038091 -0.57540506
2.5158868 2.5817282 -0.57226932
2.5239851 2.5738115 -0.57226932
2.5320585 2.5658696 -0.57226932
2.5396605 2.5583456 -0.57226932
2.5197651 2.5224054 -0.5659979
2.5272384 2.5149179 -0.5659979
2.5351267 2.5069661 -0.5659979
2.5359459 2.4920669 -0.56443006
2.5366962 2.4771876 -0.56286216
2.5369484 2.4627709 -0.56129432
2.5517812 2.4616456 -0.56286216
2.5523722 2.4467824 -0.56129432
2.5457449 2.4251273 -0.55815858
2.5533509 2.4171178 -0.55815858
2.553319 2.4027627 -0.55659074
2.5532243 2.3884292 -0.5550229
2.5534816 2.3736722 -0.553455
2.5536714 2.3589368 -0.55188715
2.5610695 2.3509026 -0.55188715
2.5680335 2.3432937 -0.55188715
2.5607495 2.3219459 -0.54875141
2.5680315 2.3138897 -0.54875141
2.5752883 2.3058105 -0.54875141
2.5751407 2.2911439 -0.54718357
2.5823259 2.2830424 -0.54718357
2.5742514 2.2623312 -0.54404783
2.5739069 2.2477365 -0.54247999
2.5731063 2.2336152 -0.54091209
2.5726321 2.2190697 -0.53934425
2.5870895 2.2174039 -0.54091209
2.5790052 2.1964581 -0.53777635
2.5779727 2.1824152 -0.53620851
2.5772583 2.1679478 -0.53464067
2.5840564 2.1598403 -0.53464067
2.5908289 2.1517119 -0.53464067
2.5899584 2.1372757 -0.53307283
2.5890229 2.1228664 -0.53150493
2.5876546 2.1089358 -0.52993709
2.5942671 2.1007962 -0.52993709
2.5927951 2.0868969 -0.52836925
2.5993385 2.0787411 -0.52836925
2.5977633 2.0648742 -0.52680135
2.596487 2.0505815 -0.52523351
2.602916 2.0424144 -0.52523351
2.6093197 2.0342271 -0.52523351
2.6156976 2.0260196 -0.52523351
2.6063955 2.0057459 -0.52209777
2.6044903 1.9920036 -0.52052993
2.6028719 1.9778361 -0.51896209
2.6090724 1.9696494 -0.51896209
2.6152475 1.9614429 -0.51896209
2.613137 1.9477724 -0.51739419
2.6113062 1.9336759 -0.51582634
2.6170321 1.9259194 -0.51582634
2.6071239 1.9060308 -0.5126906
2.6130991 1.8978307 -0.5126906
2.6110389 1.8838335 -0.51112276
2.6249719 1.8813747 -0.5126906
2.6147783 1.8616627 -0.50955492
2.6206141 1.853439 -0.50955492
2.6345053 1.8508743 -0.51112276
2.6399851 1.8430496 -0.51112276
2.6376464 1.8291186 -0.50955492
2.659327 1.8324924 -0.5126906
2.6569207 1.8185507 -0.51112276
2.6704714 1.8162133 -0.5126906
2.6843479 1.8133435 -0.5142585
2.6900315 1.8049012 -0.5142585
2.703907 1.8019184 -0.51582634
2.7174761 1.7993405 -0.51739419
2.7396193 1.8016475 -0.52052993
2.7700725 1.809234 -0.52523351
2.767457 1.7951479 -0.52366567
2.7813854 1.7917936 -0.52523351
2.7950079 1.7888573 -0.52680135
2.8003032 1.7805564 -0.52680135
2.8225851 1.7822962 -0.52993709
2.8365376 1.778667 -0.53150493
2.8421116 1.7697469 -0.53150493
2.8557491 1.7665021 -0.53307283
2.8697002 1.7626909 -0.53464067
2.8836555 1.7588093 -0.53620851
2.8976145 1.7548578 -0.53777635
2.9031134 1.7457459 -0.53777635
2.917063 1.74168 -0.53934425
2.9307127 1.738055 -0.54091209
2.9616904 1.743873 -0.54561573
2.9839025 1.7450494 -0.54875141
2.9893701 1.7356664 -0.54875141
3.0119212 1.7361311 -0.55188715
3.0259328 1.7315655 -0.553455
3.0399449 1.7269292 -0.5550229
3.0625606 1.727073 -0.55815858
3.0676715 1.7179784 -0.55815858
3.0816858 1.7131314 -0.55972648
3.0956998 1.708213 -0.56129432
3.1183751 1.707968 -0.56443006
3.1321051 1.703427 -0.5659979
3.1461322 1.69827 -0.56756574
3.1775689 1.7023696 -0.57226932
3.2003419 1.7016518 -0.57540506
3.2141106 1.6967596 -0.5769729
3.236922 1.6958207 -0.58010864
3.2419395 1.6862088 -0.58010864
3.2735498 1.6896054 -0.58481222
3.278842 1.6793123 -0.58481222
3.3105152 1.682427 -0.58951581
3.3422399 1.6853594 -0.59421939
3.3475182 1.6748509 -0.59421939
3.3701637 1.6736972 -0.59735513
3.4867918 1.705144 -0.61616945
3.4654739 1.6812491 -0.61146587
3.506336 1.6874855 -0.61773729
3.5205326 1.6807169 -0.61930513
3.5612054 1.6871783 -0.62557662
3.5933039 1.6885833 -0.6302802
3.6254461 1.689803 -0.63498378
3.6397018 1.6825491 -0.63655168
3.6808808 1.6875707 -0.6428231
3.7218313 1.6929991 -0.64909452
3.8078566 1.7185133 -0.66320533
3.8763397 1.7347823 -0.67418027
3.9449623 1.750638 -0.68515533
4.0137219 1.7660799 -0.69613039
4.05546 1.7692585 -0.70240182
2.4013731 5.8060246 -0.76966751
2.3890221 5.7251692 -0.75994027
2.3790512 5.6540136 -0.7514289
2.3696537 5.5825543 -0.74291754
2.3637378 5.5203352 -0.73562217
2.3613908 5.4673214 -0.72954267
2.3577888 5.4147882 -0.72346312
2.3628147 5.3800902 -0.71981543
2.3667126 5.3458276 -0.71616769
2.3673084 5.3021126 -0.71130407
2.3717284 5.2674971 -0.70765632
2.3759546 5.2329063 -0.70400864
2.3799865 5.1983414 -0.70036089
2.3796651 5.1547914 -0.69549733
2.386575 5.1297092 -0.69306552
2.3984635 5.1132002 -0.69184965
2.3890545 5.0518017 -0.68455416
2.3869529 5.0088496 -0.67969054
2.3889141 4.9749026 -0.67604285
2.3829079 4.9227023 -0.6699633
2.3765976 4.8705897 -0.66388381
2.3918872 4.8630991 -0.66388381
2.3983359 4.8377748 -0.661452
2.4002123 4.8035793 -0.65780425
2.4055285 4.7787046 -0.65537244
2.4025662 4.7357168 -0.65050888
2.4038763 4.7016325 -0.64686114
2.4004498 4.6587634 -0.64199752
2.405117 4.6340013 -0.63956571
2.405863 4.6000361 -0.63591802
2.4102488 4.5753136 -0.63348621
2.4059956 4.5326505 -0.62862259
2.4108608 4.5075645 -0.62619078
2.4155922 4.4824924 -0.62375897
2.4194119 4.4578576 -0.6213271
2.4238806 4.432817 -0.61889529
2.4234269 4.3990989 -0.61524761
2.4276013 4.3741064 -0.6128158
2.4267995 4.3404675 -0.60916811
2.4355524 4.3241739 -0.60795224
2.4336815 4.2910266 -0.60430449
2.4373024 4.2661228 -0.60187268
2.4450002 4.2502689 -0.60065681
2.4384351 4.2082143 -0.59579319
2.440907 4.1838136 -0.59336138
2.4439809 4.159009 -0.59092951
2.4469233 4.1342273 -0.5884977
2.4497344 4.1094675 -0.58606589
2.4524143 4.0847316 -0.58363408
2.4600987 4.0685134 -0.5824182
2.4566765 4.0357604 -0.57877046
2.4589672 4.0110984 -0.57633865
2.4611278 3.9864619 -0.57390684
2.4677062 3.9707117 -0.57269096
2.4689481 3.946543 -0.57025915
2.4760432 3.9303687 -0.56904328
2.4724276 3.8974261 -0.56539559
2.4846597 3.8896396 -0.56539559
2.4800849 3.8572032 -0.56174785
2.4921906 3.8493927 -0.56174785
2.4880097 3.8165991 -0.5581001
2.4945409 3.8004663 -0.55688423
2.4900503 3.7677681 -0.55323648
2.512872 3.776454 -0.55566829
2.5255766 3.6719899 -0.54594105
2.5201483 3.6395564 -0.54229337
2.5195866 3.6157756 -0.53986156
2.5195327 3.5915909 -0.53742975
2.5250776 3.5755498 -0.53621382
2.5305469 3.5595098 -0.53499794
2.5718551 3.1410742 -0.49730486
2.5622308 3.1104462 -0.4936572
2.620492 2.6712909 -0.45839596
2.5591397 2.5924075 -0.44623691
2.5598261 2.5777597 -0.445021
2.5959764 2.5977893 -0.44988462
2.5755248 2.5620747 -0.445021
2.6394007 2.4526827 -0.44137329
2.6179242 2.4174433 -0.43650967
2.6255057 2.4092069 -0.43650967
2.6106429 2.3813388 -0.43286198
2.6107566 2.3664596 -0.43164608
2.6108031 2.351603 -0.43043017
2.6181781 2.3433893 -0.43043017
2.6106935 2.3219597 -0.42799836
2.6179755 2.3137465 -0.42799836
2.617372 2.2994175 -0.42678246
2.6245828 2.2911835 -0.42678246
2.6163759 2.2703753 -0.42435065
2.6234956 2.2621446 -0.42435065
2.6305892 2.2538912 -0.42435065
2.6300993 2.2391815 -0.42313474
2.6367314 2.2313683 -0.42313474
2.6361318 2.2166855 -0.42191884
2.6354656 2.2020288 -0.42070293
2.6347334 2.1873977 -0.419487
2.6339355 2.1727936 -0.41827109
2.6407485 2.1645081 -0.41827109
2.6394639 2.150394 -0.41705519
2.6384916 2.1358461 -0.41583928
2.6448171 2.1280081 -0.41583928
2.6359837 2.1072929 -0.41340747
2.6499958 2.1056373 -0.41462338
2.6410167 2.0850008 -0.4121916
2.6475537 2.0766935 -0.4121916
2.6540649 2.0683658 -0.4121916
2.6448534 2.0478642 -0.40975979
2.6512735 2.0395451 -0.40975979
2.6494284 2.025641 -0.40854388
2.6478748 2.0113037 -0.40732798
2.6541805 2.002975 -0.40732798
2.6525183 1.9886729 -0.40611207
2.658407 1.980794 -0.40611207
2.6646168 1.9724324 -0.40611207
2.6704574 1.9645177 -0.40611207
2.6766157 1.9561187 -0.40611207
2.6827481 1.9477 -0.40611207
2.7371564 1.9740994 -0.41340747
3.1872737 1.7842282 -0.44745281
3.2015395 1.7790277 -0.44866872
3.2244954 1.7785487 -0.45110053
3.230067 1.7684101 -0.45110053
3.2352998 1.7588184 -0.45110053
3.2757506 1.7674993 -0.45596415
3.2812874 1.7571994 -0.45596415
3.2867916 1.7468821 -0.45596415
3.3270745 1.7556518 -0.46082777
3.3413668 1.7497954 -0.46204367
3.3553503 1.7444525 -0.46325958
3.3872771 1.7475557 -0.46690729
3.4015858 1.7414287 -0.4681232
3.6852019 1.7727757 -0.5009526
3.7086689 1.7697393 -0.50338441
3.7318454 1.7672236 -0.50581622
3.7643311 1.7681512 -0.50946397
3.796859 1.7688912 -0.51311165
3.8384392 1.7736077 -0.51797527
3.8981328 1.7863508 -0.5252707
3.9305232 1.7871017 -0.52891839
3.9900951 1.7999207 -0.53621382
4.0410333 1.8076415 -0.54229337
4.0557656 1.7989615 -0.54350924
2.2111766 4.6735573 -0.45239246
2.2207465 4.6579838 -0.45152077
2.2604401 4.7052512 -0.45675075
2.4179876 4.7271962 -0.46459571
2.428262 4.710722 -0.46372402
2.4941378 4.7325549 -0.46808237
2.5089931 4.7246957 -0.46808237
2.5858636 4.7625685 -0.47418401
2.5960319 4.7456813 -0.47331232
2.7581587 4.8949432 -0.49161723
2.7628381 4.8694096 -0.48987389
2.7484624 4.8088121 -0.48464394
2.737874 4.7574644 -0.48028561
2.7378182 4.7229843 -0.47767064
2.746798 4.7062364 -0.47679895
2.5457847 3.7742808 -0.3983494
2.558001 3.7177429 -0.39486274
2.5583229 3.69331 -0.39311942
2.6559877 2.6411953 -0.32774481
2.6430149 2.6118314 -0.32512984
2.6440992 2.5965354 -0.32425818
2.6451135 2.5812583 -0.32338649
2.6456103 2.5664623 -0.32251483
2.6536601 2.5581381 -0.32251483
2.65449 2.5428975 -0.32164317
2.6552501 2.5276771 -0.32077152
2.663178 2.5193229 -0.32077152
2.6633842 2.5045855 -0.31989986
2.6635263 2.4898691 -0.3190282
2.6640365 2.474709 -0.31815654
2.6791177 2.4730847 -0.3190282
2.6721916 2.4511878 -0.31728488
2.6720917 2.4365361 -0.31641319
2.6723506 2.4214406 -0.31554154
2.6725416 2.4063673 -0.31466988
2.6726642 2.3913169 -0.31379822
2.6652737 2.3696704 -0.3120549
2.6727052 2.3612854 -0.3120549
2.6796994 2.3533449 -0.3120549
2.6870794 2.3449147 -0.3120549
2.6789749 2.3238761 -0.31031159
2.6862621 2.3154488 -0.31031159
2.6935232 2.306998 -0.31031159
2.693171 2.2920682 -0.30943993
2.6999598 2.2840674 -0.30943993
2.6994965 2.2691638 -0.30856827
2.698966 2.2542858 -0.30769661
2.698369 2.2394335 -0.30682492
2.7053909 2.2309456 -0.30682492
2.7046809 2.2161214 -0.30595326
2.7189686 2.2143776 -0.30682492
2.7104235 2.1932919 -0.30508161
2.6087024 4.6965532 -0.28541192
2.5795574 4.6099052 -0.28063738
2.5842202 4.5843801 -0.27957636
2.6076694 4.5940619 -0.28063738
2.5923491 4.5338335 -0.27745435
2.6847129 4.4681125 -0.27692384
2.6935668 4.4511127 -0.27639332
2.6270893 3.8167274 -0.24615452
2.6276915 3.7920396 -0.24509351
2.6103711 3.7432716 -0.24244097
2.6393316 3.7595713 -0.24403249
2.6223128 3.7104864 -0.24137996
2.6339562 3.70223 -0.24137996
2.6449296 3.6943984 -0.24137996
2.6961811 3.0144556 -0.21485469
2.692277 2.9911261 -0.21379368
2.7217722 3.0048568 -0.2153852
2.6942549 2.921782 -0.21114117
2.6898355 2.8986633 -0.21008015
2.6921132 2.8829002 -0.20954964
2.6943185 2.8671515 -0.20901912
2.6964514 2.8514173 -0.20848863
2.7053962 2.842932 -0.20848863
2.6866872 2.8055699 -0.20636661
2.7024174 2.804306 -0.20689711
2.6968248 2.7819357 -0.2058361
2.7055511 2.7734497 -0.2058361
2.6932647 2.7435577 -0.20424458
2.6948526 2.7279789 -0.20371409
2.7029345 2.7199714 -0.20371409
2.6973443 2.6973441 -0.20265307
2.7053354 2.6893291 -0.20265307
2.7137709 2.6808169 -0.20265307
2.7150533 2.6652825 -0.20212257
2.7162652 2.6497667 -0.20159206
2.7169464 2.6347439 -0.20106156
2.7252102 2.6261954 -0.20106156
2.7262352 2.6107142 -0.20053105
2.7344234 2.6021369 -0.20053105
2.7353292 2.5866723 -0.20000055
2.7357161 2.5717053 -0.19947004
2.7287424 2.5499411 -0.19840904
2.7367399 2.5413556 -0.19840904
2.7373712 2.5259736 -0.19787852
2.7379334 2.5106122 -0.19734803
2.7379904 2.4957504 -0.1968175
2.7384162 2.4804327 -0.19628701
2.7461953 2.4718175 -0.19628701
2.7613902 2.469835 -0.1968175
2.8139198 2.5009508 -0.20000055
3.5391307 2.1560576 -0.22015975
3.5373423 2.1397595 -0.21962924
3.5526075 2.1337781 -0.22015975
2.7069685 4.2622108 -0.091518663
2.6934116 4.2115703 -0.090612538
2.6849763 4.1694632 -0.089887641
2.6871824 4.1442294 -0.089525193
2.6892569 4.1190228 -0.089162737
2.6857069 4.0854893 -0.088619061
2.6874914 4.0603571 -0.088256612
2.6946898 4.0435734 -0.088075384
2.6899676 4.0106497 -0.087531708
2.6794798 3.9695027 -0.086806811
2.6919372 3.9610653 -0.086806811
2.6874301 3.9278333 -0.086263135
2.6877317 3.9033725 -0.085900687
2.6885891 3.8784752 -0.085538231
2.6893165 3.8536115 -0.085175782
2.695662 3.8369627 -0.084994562
2.6839471 3.7962914 -0.084269665
2.6900625 3.7796946 -0.084088437
2.7019236 3.771225 -0.084088437
2.7020605 3.7464993 -0.083725981
2.7014194 3.7222819 -0.083363533
2.701304 3.6976299 -0.083001085
2.706341 3.6815426 -0.082819857
2.7119462 3.6649854 -0.082638636
2.7055295 3.6323915 -0.082094952
2.7169275 3.6238739 -0.082094952
2.7042079 3.5833974 -0.081370056
2.7094045 3.5669224 -0.081188835
2.714524 3.5504498 -0.081007607
2.7134693 3.5260572 -0.080645159
2.7177985 3.5100851 -0.080463938
2.7103741 3.4778705 -0.079920255
2.7268507 3.4776816 -0.08010149
2.7253747 3.4534006 -0.079739034
2.7231746 3.4296386 -0.079376586
2.7276936 3.4132557 -0.079195358
2.732137 3.3968787 -0.079014137
2.7302132 3.3727357 -0.078651682
2.7212667 3.341363 -0.078108005
2.7317507 3.3327971 -0.078108005
2.7358449 3.3164859 -0.077926777
2.7334771 3.2924891 -0.077564329
2.7373967 3.2762129 -0.077383108
2.7412407 3.2599442 -0.077201881
2.7444437 3.2441635 -0.07702066
2.7540574 3.2360063 -0.07702066
2.7512019 3.2121506 -0.076658212
2.7547512 3.1959183 -0.076476976
2.7707722 3.1952848 -0.076658212
2.7610748 3.1639645 -0.076114528
2.7644036 3.1477623 -0.075933307
2.7742789 3.1390622 -0.075933307
2.7708373 3.1153893 -0.075570859
2.7806108 3.1066689 -0.075570859
2.7836657 3.0904889 -0.075389631
2.7866461 3.0743206 -0.075208411
2.7822821 3.0512629 -0.074845962
2.790792 3.0434813 -0.074845962
2.8003395 3.034699 -0.074845962
2.8030558 3.0185597 -0.074664727
2.8125253 3.0097387 -0.074664727
2.8151171 2.9936047 -0.074483506
2.824508 2.984746 -0.074483506
2.8269758 2.968617 -0.074302278
2.8357713 2.960216 -0.074302278
2.845057 2.9512928 -0.074302278
2.8403914 2.9279873 -0.07393983
2.8565598 2.926204 -0.074121051
2.8582242 2.9105818 -0.07393983
2.8603261 2.8944762 -0.073758602
2.8689015 2.8859768 -0.073758602
2.877954 2.8769495 -0.073758602
2.8869781 2.8678937 -0.073758602
2.8746274 2.837738 -0.073214933
2.8973069 2.8432024 -0.073577382
2.8847501 2.8131442 -0.073033705
2.8500111 2.7628176 -0.07194636
2.844275 2.7399771 -0.071583904
2.8388982 2.7167044 -0.071221456
2.8329282 2.6939926 -0.070859
2.8336432 2.6787066 -0.07067778
2.8342927 2.6634405 -0.070496552
2.8353384 2.6476994 -0.070315331
2.8363137 2.6319776 -0.070134103
2.836761 2.6167715 -0.069952875
2.8449681 2.6078463 -0.069952875
2.8531468 2.5988958 -0.069952875
2.86871 2.5966291 -0.070134103
2.8991544 2.6076632 -0.07067778
2.96697 2.6518459 -0.072127581
2.9972484 2.6629529 -0.07267125
3.0055993 2.6535239 -0.07267125
3.0134592 2.6445944 -0.07267125
3.0368237 2.648257 -0.073033705
3.0375724 2.6321561 -0.072852485
3.0534034 2.6291237 -0.073033705
3.0611906 2.6200528 -0.073033705
3.0694065 2.6104228 -0.073033705
3.0775924 2.6007669 -0.073033705
3.0934048 2.5975156 -0.073214933
3.1015499 2.5877843 -0.073214933
3.1019669 2.5716465 -0.073033705
3.1172996 2.5687902 -0.073214933
3.1176181 2.5526497 -0.073033705
3.1329334 2.5496995 -0.073214933
3.140928 2.5398445 -0.073214933
3.1562428 2.5367777 -0.073396154
3.1563842 2.5206106 -0.073214933
3.1799521 2.5231111 -0.073577382
3.1878631 2.5131085 -0.073577382
3.1957426 2.5030811 -0.073577382
3.2114809 2.4991696 -0.073758602
3.2346995 2.501864 -0.074121051
3.2504716 2.4977818 -0.074302278
3.2424083 2.4754236 -0.07393983
3.2661014 2.4773092 -0.074302278
3.2574692 2.4555705 -0.07393983
3.281173 2.4573119 -0.074302278
3.2964706 2.4535353 -0.074483506
3.3122013 2.4491112 -0.074664727
3.3118215 2.4327745 -0.074483506
3.3275239 2.428252 -0.074664727
3.3351362 2.4177864 -0.074664727
3.3346024 2.4014537 -0.074483506
3.3583937 2.402601 -0.074845962
3.357775 2.3862462 -0.074664727
3.3648403 2.3762732 -0.074664727
3.3804743 2.3714328 -0.074845962
3.4038999 2.3728273 -0.075208411
3.4113374 2.3621223 -0.075208411
3.4265678 2.3576574 -0.075389631
3.4257033 2.3412395 -0.075208411
3.4495862 2.3416972 -0.075570859
3.4652157 2.3364377 -0.075752079
3.4804394 2.3317108 -0.075933307
3.4960711 2.3263042 -0.076114528
3.5033624 2.3153093 -0.076114528
3.5189776 2.3097785 -0.076295756
3.5513439 2.3150918 -0.076839432
3.5753853 2.3147912 -0.077201881
3.590647 2.3095815 -0.077383108
3.6143336 2.3096855 -0.077745557
3.6468973 2.3143916 -0.078289226
3.6626091 2.308254 -0.078470461
3.6863906 2.3079879 -0.078832909
3.7275875 2.3175118 -0.079557806
3.7688804 2.3267992 -0.08028271
3.7846956 2.3201735 -0.080463938
3.7919662 2.3082719 -0.080463938
3.8248692 2.3118632 -0.081007607
3.8659999 2.3210909 -0.081732504
