# .PCD v0.7 - Point Cloud Data file format
VERSION 0.7
FIELDS x y z
SIZE 4 4 4
TYPE F F F
COUNT 1 1 1
WIDTH 676
HEIGHT 1
VIEWPOINT 0 0 0 1 0 0 0
POINTS 676
DATA ascii
-3.8159385 3.4856503 -1.3825172
-3.8055787 3.4969583 -1.3825172
-3.7945745 3.5088959 -1.3825172
-3.7835312 3.5208006 -1.3825172
-3.7795036 3.5392716 -1.3851013
-3.7753973 3.5577526 -1.3876854
-3.7712104 3.5762444 -1.3902696
-3.7605836 3.5874171 -1.3902696
-3.7353556 3.5858345 -1.3851013
-3.7240727 3.5975511 -1.3851013
-3.7127528 3.6092322 -1.3851013
-3.6882131 3.606725 -1.379933
-3.6699796 3.6115177 -1.3773489
-3.6517501 3.6162329 -1.3747647
-3.6266866 3.6140487 -1.3695964
-3.6084943 3.6185834 -1.3670124
-3.5903072 3.6230412 -1.3644282
-3.5653517 3.6205356 -1.3592598
-3.5410771 3.6172929 -1.3540915
-3.5235922 3.6208596 -1.3515074
-3.4987693 3.6180222 -1.3463392
-3.3354471 3.6260026 -1.3179135
-3.3044868 3.6150715 -1.3101611
-3.3061047 3.6397359 -1.3153293
-3.2758677 3.6280205 -1.307577
-3.2644544 3.6382935 -1.307577
-3.2594378 3.6557407 -1.3101611
-3.0069504 3.7305501 -1.2817355
-2.9831388 3.7248971 -1.2765673
-2.9660561 3.7261746 -1.2739831
-2.9543362 3.7354736 -1.2739831
-2.9425869 3.744736 -1.2739831
-2.931462 3.7534511 -1.2739831
-2.9321601 3.7773941 -1.2791514
-2.9150376 3.7784297 -1.2765673
-2.920119 3.8110793 -1.2843196
-2.9081326 3.8202338 -1.2843196
-2.9194241 3.8601716 -1.2946563
-2.8854394 3.9934125 -1.3179135
-2.8623116 3.9862602 -1.3127453
-2.8666024 4.0188274 -1.3204976
-2.8707168 4.0514607 -1.3282502
-2.885777 4.0999575 -1.3411709
-2.9068189 4.1559997 -1.3566757
-2.8992627 4.1730428 -1.3592598
-2.8861372 4.1821313 -1.3592598
-2.8675215 4.1832108 -1.3566757
-2.8652399 4.2081685 -1.3618441
-2.8628297 4.2331529 -1.3670124
-2.87181 4.2737007 -1.3773489
-2.8583684 4.2827024 -1.3773489
-2.8509862 4.2992163 -1.379933
-2.848094 4.3242865 -1.3851013
-4.1918683 3.5979426 -1.277478
-4.1510506 3.5856199 -1.2684656
-4.1324134 3.5922506 -1.2662127
-4.1064405 3.5923865 -1.2617066
-4.0445657 3.5594988 -1.2459352
-4.0412836 3.5779395 -1.2481884
-4.0009251 3.5646939 -1.2391762
-3.989707 3.5772448 -1.2391762
-3.9567473 3.5701816 -1.232417
-3.9166603 3.5563958 -1.2234048
-3.8982768 3.5621099 -1.2211518
-3.8805165 3.5670681 -1.2188987
-3.8549876 3.5660088 -1.2143925
-3.8508961 3.5847418 -1.2166457
-3.8253951 3.5834997 -1.2121396
-3.7999399 3.5821326 -1.2076334
-3.7674615 3.5739381 -1.2008743
-3.7497928 3.5783737 -1.1986213
-3.7315044 3.583389 -1.1963682
-3.7062171 3.5815527 -1.1918621
-3.6879628 3.5863853 -1.1896091
-3.649446 3.5700605 -1.1805968
-3.6382132 3.5815072 -1.1805968
-3.6200209 3.5860639 -1.1783439
-3.5880375 3.5767827 -1.1715847
-3.5767837 3.5880365 -1.1715847
-3.5517795 3.5854132 -1.1670786
-3.547332 3.6034982 -1.1693317
-3.5093682 3.5861533 -1.1603194
-3.4919193 3.5895655 -1.1580664
-3.4670825 3.5865076 -1.1535603
-3.455797 3.597383 -1.1535603
-3.4310241 3.5941267 -1.1490542
-3.4063044 3.5907519 -1.1445482
-3.3816414 3.587256 -1.1400421
-3.3703556 3.5978613 -1.1400421
-3.3523965 3.6013014 -1.1377889
-3.3350801 3.6040809 -1.135536
-3.32374 3.6145415 -1.135536
-3.3057966 3.6177723 -1.1332829
-3.2944155 3.6281393 -1.1332829
-3.2705786 3.6234341 -1.1287768
-3.2526731 3.6264393 -1.1265237
-3.2347839 3.6293645 -1.1242707
-3.2104456 3.6249225 -1.1197646
-3.193239 3.6271191 -1.1175116
-3.1818273 3.6371338 -1.1175116
-3.1767759 3.6544657 -1.1197646
-3.1525443 3.6496797 -1.1152585
-3.1347165 3.6521735 -1.1130055
-3.1169057 3.6545899 -1.1107523
-3.1060474 3.6638227 -1.1107523
-3.0882459 3.6661108 -1.1084994
-3.0711005 3.6677868 -1.1062464
-3.0595615 3.6774178 -1.1062464
-3.0355787 3.6719925 -1.1017402
-3.0302112 3.6890407 -1.1039933
-3.0124469 3.6909933 -1.1017402
-2.9885638 3.6853037 -1.0972341
-2.9708571 3.6870883 -1.0949811
-2.947082 3.6811912 -1.090475
-2.9240127 3.6746726 -1.0859689
-2.9124546 3.6838398 -1.0859689
-2.9129047 3.7082944 -1.090475
-2.9078839 3.7246015 -1.092728
-2.9027934 3.7409096 -1.0949811
-2.89763 3.7572219 -1.0972341
-2.8910799 3.7745445 -1.0994872
-2.9028084 3.814621 -1.1084994
-2.8790576 3.8081789 -1.1039933
-2.8963363 3.8561552 -1.1152585
-2.873225 3.8491175 -1.1107523
-2.9017437 3.9129055 -1.1265237
-2.8894372 3.9220016 -1.1265237
-2.8828547 3.9389224 -1.1287768
-2.8865721 3.996449 -1.1400421
-2.862107 4.0140066 -1.1400421
-2.860744 4.0388799 -1.1445482
-2.8592551 4.0637832 -1.1490542
-2.8750973 4.112174 -1.1603194
-2.8454924 4.0971785 -1.1535603
-2.8492048 4.1301565 -1.1603194
-2.8472288 4.1551619 -1.1648256
-2.8451254 4.1801944 -1.1693317
-2.8483496 4.2133255 -1.1760907
-2.9064589 4.3268991 -1.2053804
-3.1091399 4.6601954 -1.2955023
-3.0952978 4.6694007 -1.2955023
-3.0859716 4.6872387 -1.2977554
-3.0712318 4.6969099 -1.2977554
-3.0564597 4.7065363 -1.2977554
-3.0363789 4.7079272 -1.2955023
-3.0215724 4.7174435 -1.2955023
-3.0075629 4.7263875 -1.2955023
-2.9770863 4.7111034 -1.2887431
-2.96227 4.7204337 -1.2887431
-2.9474266 4.7297163 -1.2887431
-2.9171715 4.7140989 -1.2819841
-2.8980701 4.7144327 -1.2797309
-2.8688376 4.6980648 -1.2729719
-2.8338568 4.6737309 -1.2639596
-2.839262 4.7159977 -1.2729719
-2.8394277 4.7499828 -1.2797309
-2.8344374 4.7756357 -1.284237
-2.8441532 4.8264861 -1.2955023
-2.8338947 4.8438072 -1.2977554
-2.8333452 4.8779602 -1.3045145
-2.8432002 4.9285426 -1.3157797
-2.8615975 4.9966316 -1.3315511
-2.8410718 4.9971271 -1.329298
-2.8501821 5.047955 -1.3405633
-2.849488 5.0818834 -1.3473225
-2.8486149 5.1158533 -1.3540815
-2.8410585 5.1423264 -1.3585876
-2.8436294 5.1853967 -1.3675998
-2.8366392 5.2114201 -1.3721058
-2.8387778 5.2545929 -1.3811181
-2.8369896 5.2887506 -1.3878772
-4.3839135 3.6929042 -1.1177461
-4.3498292 3.6876187 -1.1120043
-4.3083544 3.6757851 -1.1043485
-4.2744474 3.6701174 -1.0986066
-4.2331886 3.6578598 -1.0909508
-4.1920495 3.6453795 -1.0832951
-4.1731911 3.6520667 -1.0813812
-4.1255007 3.6320052 -1.0718113
-4.1073608 3.6377194 -1.0698974
-4.0959115 3.6506064 -1.0698974
-4.0698099 3.6503479 -1.0660695
-4.0437489 3.6499639 -1.0622416
-4.0104671 3.6428509 -1.0564998
-3.9700253 3.6289427 -1.048844
-3.9447896 3.6274199 -1.0450162
-3.9045575 3.613131 -1.0373603
-3.8788218 3.6120012 -1.0335324
-3.867456 3.6241684 -1.0335324
-3.8417704 3.6228318 -1.0297046
-3.8232491 3.6281278 -1.0277905
-3.7982671 3.6259022 -1.0239626
-3.7727015 3.6242168 -1.0201348
-3.7612979 3.6360505 -1.0201348
-3.7428215 3.6410041 -1.0182208
-3.6969259 3.6177704 -1.008651
-3.6855409 3.6293678 -1.008651
-3.6601779 3.62711 -1.0048232
-3.6418157 3.6316595 -1.0029092
-3.6096046 3.6222248 -0.99716741
-3.5912998 3.6265736 -0.99525338
-3.5730035 3.6308434 -0.99333948
-3.5553517 3.6344116 -0.99142551
-3.5377107 3.6379075 -0.98951161
-3.5194442 3.6419446 -0.98759758
-3.4943876 3.6388254 -0.98376971
-3.4897139 3.6568873 -0.98568368
-3.4647014 3.6535881 -0.98185581
-3.4464753 3.6573105 -0.97994184
-3.4215515 3.6537907 -0.97611392
-3.4033682 3.6573372 -0.97419995
-3.3925006 3.6674201 -0.97419995
-3.3809631 3.6780593 -0.97419995
-3.3495333 3.6669216 -0.96845812
-3.3445942 3.6846931 -0.97037202
-3.3336458 3.6946015 -0.97037202
-3.2958121 3.6758261 -0.96271622
-3.2907798 3.6934884 -0.96463025
-3.2726529 3.6964602 -0.96271622
-3.2422183 3.6840494 -0.95697445
-3.217705 3.679441 -0.95314658
-3.1996906 3.6821237 -0.95123255
-3.181695 3.6847267 -0.94931865
-3.1701024 3.694705 -0.94931865
-3.1648479 3.7121143 -0.95123255
-3.1538188 3.7214892 -0.95123255
-3.1294682 3.7163625 -0.94740468
-3.099529 3.7030516 -0.94166285
-3.0816031 3.7052252 -0.93974888
-3.0762007 3.7224536 -0.94166285
-3.0769475 3.7472713 -0.94549078
-3.0651605 3.7569189 -0.94549078
-3.0533433 3.7665291 -0.94549078
-3.0353374 3.7684598 -0.94357675
-3.0234842 3.7779763 -0.94357675
-2.9633799 3.7254803 -0.92826521
-2.9029748 3.6731665 -0.91295362
-2.9399149 3.744025 -0.92826521
-2.9650247 3.7991576 -0.93974888
-2.977803 3.8389597 -0.94740468
-2.9604058 3.8400059 -0.94549078
-2.9595902 3.8653874 -0.94931865
-2.9401085 3.9660857 -0.96271622
-2.9218149 3.9673994 -0.96080238
-2.9441082 4.0240884 -0.97228605
-2.9487641 4.0571356 -0.97802782
-2.9353693 4.091023 -0.98185581
-2.9225032 4.100224 -0.98185581
-2.915278 4.1173959 -0.98376971
-2.9192691 4.1506186 -0.98951161
-2.9013171 4.1512179 -0.98759758
-2.927444 4.2167501 -1.0009953
-2.9141831 4.2259254 -1.0009953
-2.9119847 4.251256 -1.0048232
-2.8986154 4.2603827 -1.0048232
-2.8797216 4.2613349 -1.0029092
-2.9108362 4.3350496 -1.0182208
-2.8972037 4.3441725 -1.0182208
-2.8897219 4.3609324 -1.0201348
-2.8760083 4.3699884 -1.0201348
-2.8637164 4.6915188 -1.0718113
-2.8642242 4.7256742 -1.0775532
-2.8696091 4.7682877 -1.085209
-2.8797865 4.8194075 -1.0947788
-2.8746488 4.8453126 -1.0986066
-2.8693767 4.871233 -1.1024345
-2.8738775 4.914115 -1.1100903
-2.8682828 4.9400949 -1.1139182
-2.8781269 4.9910979 -1.1234879
-2.8770628 5.0256691 -1.1292299
-2.8758097 5.0602822 -1.1349716
-2.8752542 5.0944366 -1.1407136
-2.860127 5.1029449 -1.1407136
-2.8688393 5.1542902 -1.1502832
-2.8564773 5.1723666 -1.1521972
-2.8685224 5.2329555 -1.1636809
-2.8755214 5.2850504 -1.1732506
-2.8589048 5.2940574 -1.1732506
-2.871012 5.3544183 -1.1847343
-2.8587883 5.3720756 -1.1866482
-2.8648169 5.4244251 -1.196218
-2.861429 5.4594793 -1.2019598
-2.8633413 5.5027723 -1.2096157
-2.8595479 5.5379047 -1.2153575
-2.8520622 5.5638318 -1.2191855
-2.8568168 5.6165075 -1.2287552
-2.8568459 5.6605053 -1.236411
-2.8522341 5.6957803 -1.2421528
-2.8659015 5.7657437 -1.2555505
-2.8651421 5.8099284 -1.2632062
-2.8598142 5.8453512 -1.2689481
-2.8671491 5.9072881 -1.2804319
-2.8656096 5.9516397 -1.2880876
-2.8595893 5.9871821 -1.2938294
-2.862833 6.0399866 -1.3033992
-2.8605459 6.0844812 -1.3110549
-2.8673761 6.1463113 -1.3225386
-2.860419 6.1820121 -1.3282806
-2.8655465 6.2444916 -1.3397642
-2.8581126 6.2802629 -1.3455061
-2.8666294 6.3518357 -1.3589038
-2.8707147 6.4145641 -1.3703874
-2.883533 6.4948187 -1.3856989
-2.87498 6.5307951 -1.3914409
-4.3728342 3.6848793 -0.90779167
-4.3386397 3.6794341 -0.90308803
-4.3120332 3.6802244 -0.89995229
-4.2629924 3.6615746 -0.89211303
-4.2439952 3.6684916 -0.89054513
-4.2026424 3.6558795 -0.88427371
-4.1762753 3.6560528 -0.88113803
-4.1431742 3.6488447 -0.87643439
-4.1101532 3.6414728 -0.87173086
-4.0765767 3.6346505 -0.86702722
-4.0724883 3.6540365 -0.86859512
-4.0316682 3.6403365 -0.8623237
-3.9982839 3.6330583 -0.85762006
-3.9722741 3.6322711 -0.85448432
-3.9396722 3.6239834 -0.8497808
-3.9210188 3.6296341 -0.8482129
-3.8879178 3.6217384 -0.84350938
-3.8693156 3.6271794 -0.84194148
-3.8579021 3.6393166 -0.84194148
-3.82496 3.6310205 -0.83723783
-3.7998834 3.6287127 -0.83410215
-3.7813444 3.6337886 -0.83253431
-3.7628107 3.6387837 -0.83096641
-3.7301276 3.6299226 -0.82626289
-3.7193398 3.6409752 -0.82626289
-3.6867743 3.6318498 -0.82155925
-3.6683331 3.6364605 -0.81999141
-3.6568916 3.6479664 -0.81999141
-3.6245029 3.6384449 -0.81528783
-3.6061056 3.642796 -0.81371999
-3.5877163 3.6470671 -0.81215209
-3.5699751 3.6506345 -0.81058425
-3.5591285 3.6612101 -0.81058425
-3.5338857 3.6581662 -0.80744857
-3.5223749 3.6692512 -0.80744857
-3.4971948 3.6660075 -0.80431283
-3.4924557 3.6841428 -0.80588067
-3.4537766 3.6663404 -0.79960924
-3.4287431 3.6627517 -0.7964735
-3.4172184 3.6735063 -0.7964735
-3.4063027 3.6836302 -0.7964735
-3.3880315 3.6870401 -0.7949056
-3.3697729 3.690372 -0.79333776
-3.3581634 3.7009397 -0.79333776
-3.3339367 3.6962206 -0.79020208
-3.3288989 3.7140315 -0.79176986
-3.3172169 3.7244689 -0.79176986
-3.2924078 3.7200813 -0.78863418
-3.2813561 3.7298331 -0.78863418
-3.2566209 3.7252531 -0.78549844
-3.2449005 3.7354667 -0.78549844
-3.2266984 3.7381639 -0.7839306
-3.2149377 3.7482834 -0.7839306
-3.1967404 3.7508473 -0.7823627
-3.1855962 3.7603168 -0.7823627
-3.173768 3.7703054 -0.7823627
-3.1498923 3.7645559 -0.77922702
-3.1443632 3.7820284 -0.78079492
-3.1198866 3.776659 -0.77765918
-3.0892069 3.7635407 -0.77295554
-3.0648847 3.7579193 -0.76981986
-3.0530643 3.7675288 -0.76981986
-3.0597939 3.8001809 -0.77452344
-3.0540106 3.817486 -0.77609128
-3.0365226 3.8188014 -0.77452344
-3.0245113 3.8283215 -0.77452344
-3.006372 3.8300347 -0.77295554
-3.0010688 3.8467259 -0.77452344
-3.0373909 3.9684343 -0.79333776
-2.995019 3.9386485 -0.78549844
-3.0004897 3.9716799 -0.79020208
-3.0117126 4.012682 -0.7964735
-2.9938869 4.0136843 -0.7949056
-3.0106647 4.0627451 -0.80274493
-2.9920318 4.064229 -0.80117702
-2.9792478 4.0736094 -0.80117702
-2.9838519 4.1069188 -0.80588067
-2.9767139 4.1242819 -0.80744857
-2.9759769 4.1491461 -0.81058425
-2.9629281 4.1584744 -0.81058425
-2.9726708 4.2000089 -0.81685573
-2.9537818 4.2012472 -0.81528783
-2.9582715 4.234282 -0.81999141
-2.9562171 4.2597818 -0.82312715
-2.9540315 4.2853107 -0.82626289
-2.9572923 4.3190179 -0.83096641
-2.9437099 4.3282866 -0.83096641
-2.9392314 4.3789892 -0.83723783
-2.941896 4.4128542 -0.84194148
-2.9233344 4.4133301 -0.84037358
-2.9257405 4.4472446 -0.84507722
-2.9279618 4.4812179 -0.8497808
-2.9299963 4.5152493 -0.85448432
-2.9264979 4.5410347 -0.85762006
-2.9122159 4.5502071 -0.85762006
-2.9212794 4.6263666 -0.86859512
-2.9078145 4.6697817 -0.87329865
-2.908711 4.7040954 -0.87800229
-2.9050798 4.7295356 -0.88113803
-2.8910353 4.7381334 -0.88113803
-2.896605 4.7809811 -0.88740945
-2.885298 4.9713984 -0.9124952
-2.8853302 5.0056086 -0.91719884
-2.8744965 5.0232196 -0.91876662
-2.8830941 5.0751619 -0.926606
-2.8728745 5.0922966 -0.92817384
-2.8810189 5.1782994 -0.94071674
-2.8638322 5.1878238 -0.94071674
-2.8665044 5.2314401 -0.94698817
-2.8783655 5.2924776 -0.95639533
-2.8646438 5.3447814 -0.96266681
-2.8710306 5.3973513 -0.97050613
-2.8632827 5.4238119 -0.97364181
-2.8599772 5.4590263 -0.97834539
-2.8574405 5.4937735 -0.98304898
-2.8492253 5.5202765 -0.98618472
-2.8643632 5.5902319 -0.99715972
-2.8467853 5.5992036 -0.99715972
-2.8514214 5.6522093 -1.004999
-2.8557549 5.7052979 -1.0128384
-2.8476014 5.7314363 -1.015974
-2.8557854 5.7935038 -1.0253812
-2.8462462 5.8201919 -1.028517
-2.8495002 5.8735347 -1.0363562
-2.843884 5.9091554 -1.0410599
-2.8423269 5.953711 -1.0473313
-2.8415647 5.9978189 -1.0536027
-2.8479087 6.0603485 -1.0630099
-2.8466086 6.1045761 -1.0692813
-2.8357093 6.1314168 -1.072417
-2.8411396 6.1941566 -1.0818242
-2.8421142 6.2480011 -1.0896635
-2.8468363 6.3109159 -1.0990707
-2.851191 6.3739219 -1.1084778
-2.852298 6.4274902 -1.1163172
-2.8519812 6.4816184 -1.1241565
-2.8592503 6.5539117 -1.1351315
-2.8582485 6.6081867 -1.1429708
-2.8542025 6.6529446 -1.1492423
-2.8487504 6.6982317 -1.1555138
-2.8557334 6.7703538 -1.1664888
-2.891597 6.9159703 -1.1900066
-2.8963213 6.9888887 -1.2009817
-2.8893585 7.0344968 -1.2072531
-2.893312 7.1075711 -1.2182282
-2.933784 7.2723298 -1.2448819
-2.9231982 7.3085117 -1.2495854
-2.9002213 7.3176599 -1.2495854
-2.8880463 7.3543148 -1.254289
-4.2889576 3.8253517 -0.70400864
-4.2473707 3.8122878 -0.69914502
-4.2132759 3.8056519 -0.69549733
-4.2086453 3.8255453 -0.69671327
-4.159987 3.8052504 -0.69063371
-4.1486773 3.8175776 -0.69063371
-4.1366625 3.8305936 -0.69063371
-4.1536551 3.8706369 -0.69549733
-4.112514 3.8565075 -0.69063371
-4.0498462 3.8217211 -0.68212235
-3.9833596 3.8052533 -0.67482692
-3.9427636 3.7902324 -0.6699633
-3.9308374 3.8025997 -0.6699633
-3.8904233 3.7872345 -0.66509968
-3.8720767 3.7918177 -0.66388381
-3.8601441 3.8039646 -0.66388381
-3.8340795 3.8020937 -0.661452
-3.8080647 3.8000968 -0.65902019
-3.7821007 3.7979741 -0.65658838
-3.7771306 3.8168933 -0.65780425
-3.7512007 3.8145876 -0.65537244
-3.7329285 3.8186026 -0.65415663
-3.7077475 3.815424 -0.65172476
-3.6750586 3.8056326 -0.64807707
-3.6630836 3.8171604 -0.64807707
-3.6236722 3.7999177 -0.64321345
-3.6185446 3.8184869 -0.64442933
-3.5439987 3.8338788 -0.63956571
-3.518508 3.8303733 -0.6371339
-3.4997663 3.8340766 -0.63591802
-3.4877048 3.845052 -0.63591802
-3.4829264 3.8627558 -0.6371339
-3.4641495 3.8662872 -0.63591802
-3.4255872 3.8474956 -0.6310544
-3.426636 3.8731074 -0.63348621
-3.3954649 3.8608961 -0.62983847
-3.3637235 3.8491235 -0.62619078
-3.3581212 3.867167 -0.62740666
-3.3265052 3.8551512 -0.62375897
-3.3208368 3.8731186 -0.62497485
-3.9652345 4.6541934 -0.74899709
-3.9578211 4.6735139 -0.75021303
-3.9814651 4.731492 -0.75750846
-4.0501966 4.8422604 -0.77331519
-3.2359781 3.918582 -0.62254304
-4.1240058 5.0260115 -0.79641736
-4.0956526 5.0235558 -0.79398555
-4.0673561 5.0209718 -0.79155374
-3.1014667 4.0258842 -0.62254304
-3.0820684 4.0282631 -0.6213271
-3.0754056 4.0458274 -0.62254304
-3.0746427 4.0713115 -0.62497485
-3.0618377 4.0809503 -0.62497485
-3.0675147 4.1138897 -0.62862259
-3.0604844 4.1314812 -0.62983847
-3.0474906 4.1410751 -0.62983847
-3.063755 4.1906939 -0.63591802
-3.0505753 4.2002974 -0.63591802
-3.0384221 4.2944965 -0.64442933
-3.0249164 4.3040199 -0.64442933
-3.0348647 4.3455276 -0.64929295
-3.0211985 4.3550401 -0.64929295
-3.0062454 4.6989293 -0.68333828
-3.3306868 5.3509707 -0.77209932
-3.2929835 5.3276362 -0.7672357
-3.0798056 5.0159554 -0.72103131
-3.0545735 5.0081229 -0.7185995
-3.079958 5.0856166 -0.72832674
-3.0793126 5.1207857 -0.73197448
-3.0632083 5.1304355 -0.73197448
-3.0420148 5.1314945 -0.73075855
-3.0409842 5.166688 -0.73440629
-3.0247359 5.1762166 -0.73440629
-2.9717979 5.1953583 -0.73319036
-2.9554627 5.204668 -0.73319036
-2.9497569 5.2307067 -0.73562217
-2.9610054 5.4061451 -0.75507665
-2.948746 5.4241419 -0.75629252
-2.9505453 5.4683199 -0.76115614
-2.9530556 5.5120482 -0.76601976
-2.9497077 5.5475883 -0.76966751
-2.9322634 5.5568285 -0.76966751
-2.9424183 5.618772 -0.77696294
-2.9348924 5.6450906 -0.77939475
-2.9353454 5.689568 -0.78425831
-2.9365129 5.7781811 -0.79398555
-2.9272826 5.8051043 -0.79641736
-2.9312384 5.858655 -0.80249691
-2.9226706 5.885107 -0.80492872
-2.9129455 5.9120655 -0.80736053
-2.911792 5.9568582 -0.81222415
-2.9196429 6.1184077 -0.83046269
-2.9142218 6.1539555 -0.83411038
-2.9039264 6.3339591 -0.85356492
-2.8840146 6.34305 -0.85356492
-2.9090877 6.6145344 -0.88517839
-2.9120991 6.6782308 -0.89247382
-2.9215231 7.1804609 -0.94962138
-2.9323585 7.2724538 -0.96056443
-2.9328763 7.336422 -0.96785992
-2.9536781 7.4563379 -0.98245078
-4.2793856 4.0143952 -0.51340878
-4.2305331 3.9936264 -0.50905043
-4.1962976 3.9863153 -0.50643545
-4.1556416 3.9712195 -0.50294882
-4.1287851 3.9704442 -0.5012055
-4.116292 3.9833949 -0.5012055
-4.1037583 3.9963062 -0.5012055
-4.0918818 4.0084658 -0.5012055
-4.0437951 3.9863341 -0.49684718
-4.0241804 3.992002 -0.49597555
-3.9834189 3.9764719 -0.49248889
-3.956851 3.9748452 -0.49074554
-3.9233253 3.9660113 -0.48813057
-3.9108453 3.9783182 -0.48813057
-3.8850999 3.9756541 -0.48638725
-3.8385804 3.9514358 -0.48202893
-3.7487273 3.9822278 -0.4785423
-3.702172 3.9576094 -0.47418401
-3.4550602 4.0055494 -0.46285239
-3.4359751 4.008821 -0.4619807
-3.4169059 4.0120111 -0.46110907
-3.4049859 4.0221324 -0.46110907
-3.3795085 4.0175624 -0.45936576
-3.3739638 4.0352135 -0.46023738
-3.361269 4.045794 -0.46023738
-3.3295174 4.0332861 -0.45762241
-3.316829 4.0437269 -0.45762241
-3.3041096 4.0541263 -0.45762241
-3.284816 4.0825682 -0.45849407
-3.1712592 4.1463346 -0.45675075
-3.1280828 4.1166177 -0.45239246
-3.1331398 4.1502771 -0.45500743
-3.1559498 4.2079163 -0.46023738
-3.1553564 4.2332373 -0.4619807
-3.1538994 4.25914 -0.46372402
-3.1447098 4.3030019 -0.46633902
-3.1062546 4.3919959 -0.47069734
-3.1038957 4.418035 -0.47244069
-3.0808697 4.6866093 -0.49074554
-3.1344445 4.901196 -0.50905043
-3.4137149 5.3729329 -0.55699188
-3.3808718 5.358355 -0.55437684
-3.3693092 5.3773928 -0.55524856
-3.2787211 5.2695341 -0.54304528
-3.0998268 5.0170903 -0.51602376
-3.1005609 5.0517359 -0.51863873
-3.0907452 5.0694184 -0.51951039
-3.0799615 5.087626 -0.52038205
-3.0844932 5.1314287 -0.52386868
-3.0734611 5.1496491 -0.5247404
-3.0725043 5.184989 -0.52735531
-3.0612526 5.2032018 -0.52822703
-3.0599635 5.2385998 -0.53084201
-3.0584843 5.2740397 -0.53345698
-3.1024842 5.386682 -0.54391694
-3.0427406 5.3977933 -0.54217362
-3.0364449 5.4241824 -0.54391694
-3.0192633 6.3300142 -0.61364985
-3.0169168 6.5292068 -0.62933975
-3.0212917 6.5929899 -0.63456976
-4.2775497 4.3787794 -0.32519981
-4.2714963 4.3986154 -0.32573032
-4.2784605 4.4335694 -0.32732186
-4.2783332 4.4614048 -0.32838288
-4.2780728 4.4892831 -0.32944387
-4.2776814 4.5172014 -0.33050489
-4.12432 4.5773077 -0.32732186
-4.0766125 4.5530448 -0.32466933
-4.0291028 4.5285244 -0.32201678
-4.0016265 4.5261984 -0.32095578
-3.9684043 4.5155482 -0.31936428
-3.9344919 4.5054293 -0.31777275
-3.9006851 4.4951406 -0.31618124
-3.8735027 4.4922462 -0.31512022
-3.8398776 4.4816446 -0.31352872
-3.8193045 4.4860835 -0.31299821
-3.7995272 4.4897723 -0.31246769
-3.7725506 4.4864001 -0.31140667
-3.7528191 4.4899111 -0.31087616
-3.7323141 4.4939981 -0.31034568
-3.6991105 4.482594 -0.30875415
-3.6850085 4.494194 -0.30875415
-3.6645651 4.4980063 -0.30822366
-3.6441338 4.5017343 -0.30769312
-3.6237135 4.5053802 -0.30716264
-3.6033061 4.5089421 -0.30663213
-3.5961237 4.5274324 -0.30716264
-3.5633245 4.5151901 -0.30557111
-3.5552847 4.5342202 -0.30610162
-3.5295377 4.5289969 -0.30504063
-3.5160851 4.5394487 -0.30504063
-3.5025995 4.5498624 -0.30504063
-3.4874933 4.5614514 -0.30504063
-3.4671063 4.5644326 -0.30451012
-3.4527483 4.5753031 -0.30451012
-3.4383585 4.5861273 -0.30451012
-3.3650703 4.5162349 -0.29920506
-3.267689 4.4144168 -0.291778
-3.2419734 4.4085703 -0.29071698
-3.2281063 4.4187346 -0.29071698
-3.2142072 4.4288549 -0.29071698
-3.2177982 4.4632306 -0.29230848
-3.2161739 4.4889927 -0.2933695
-3.2194276 4.5234814 -0.29496101
-3.2397878 4.5824976 -0.29814404
-3.2942433 4.6907177 -0.30451012
-3.2803121 4.7004704 -0.30451012
-3.2769079 4.7271657 -0.30557111
-3.2677052 4.7456617 -0.30610162
-3.252779 4.7559047 -0.30610162
-3.2378204 4.7661014 -0.30610162
-3.2340055 4.7928028 -0.30716264
-3.2142081 4.7940836 -0.30663213
-3.2157369 4.8290925 -0.30822366
-3.206903 4.8469415 -0.30875415
-3.1971452 4.8653369 -0.30928466
-3.1927609 4.8920817 -0.31034568
-3.1366272 5.4879594 -0.33580995
-3.0996602 5.4630446 -0.3336879
-3.1305788 5.5946298 -0.34058449
-3.1098287 5.6404238 -0.34217599
-3.1172247 5.7388268 -0.34695056
