# .PCD v0.7 - Point Cloud Data file format
VERSION 0.7
FIELDS x y z
SIZE 4 4 4
TYPE F F F
COUNT 1 1 1
WIDTH 228
HEIGHT 1
VIEWPOINT 0 0 0 1 0 0 0
POINTS 228
DATA ascii
-2.0321503 -3.8429298 -1.1628649
-2.0085304 -3.7679708 -1.1421918
-1.9792186 -3.6850481 -1.1189345
-1.9723953 -3.6448274 -1.1085979
-2.0254562 -3.714947 -1.1318552
-2.0371153 -3.7085664 -1.1318552
-2.0440795 -3.6936953 -1.129271
-2.4587533 -2.9054253 -1.0181528
-2.4929242 -2.927104 -1.0284895
-3.2129369 -2.5869634 -1.1034296
-3.2436779 -2.5949616 -1.111182
-3.2755916 -2.5702384 -1.1137662
-3.3065052 -2.577754 -1.1215185
-3.3374989 -2.5851011 -1.129271
-3.602092 -2.6839387 -1.2016271
-3.6648581 -2.7128408 -1.2197161
-3.6733623 -2.7013147 -1.2197161
-1.9690083 -5.67974 -1.3901304
-1.9679444 -5.5665627 -1.3653468
-1.9755926 -5.5328264 -1.3585876
-1.9698294 -5.4624367 -1.3428164
-1.9839355 -5.3950872 -1.329298
-2.0071805 -4.5986285 -1.1603194
-1.9862875 -4.5120468 -1.1400421
-2.0083609 -4.5235934 -1.1445482
-2.0731437 -4.0063438 -1.043161
-2.0911939 -3.9529157 -1.0341487
-2.0905385 -3.9201682 -1.0273896
-2.0982313 -3.904999 -1.0251366
-2.3088872 -3.4489744 -0.95979822
-2.3459291 -3.4120703 -0.95754522
-2.3677263 -3.420706 -0.96205127
-2.3728909 -3.4052567 -0.95979822
-2.3886192 -3.3823225 -0.95754522
-2.3998232 -3.3743823 -0.95754522
-2.4203906 -3.3596601 -0.95754522
-2.4366524 -3.3599272 -0.95979822
-2.4466112 -3.3526824 -0.95979822
-2.4686677 -3.3606837 -0.96430427
-2.5060728 -3.3450658 -0.96655738
-2.7383728 -3.2346971 -0.98007566
-2.7422037 -3.2186611 -0.97782254
-2.7776685 -3.2396166 -0.98683482
-2.8005621 -3.2456272 -0.99134094
-2.8203359 -3.2284594 -0.99134094
-2.8047338 -3.1903133 -0.98232877
-2.8476789 -3.1782515 -0.98683482
-2.8706982 -3.1837611 -0.99134094
-2.8806872 -3.174726 -0.99134094
-2.877506 -3.1512723 -0.98683482
-2.9000261 -3.1570702 -0.99134094
-2.9033158 -3.14079 -0.98908782
-2.9198048 -3.138787 -0.99134094
-2.929652 -3.1295979 -0.99134094
-2.9528294 -3.1345634 -0.99584705
-2.9492576 -3.111129 -0.99134094
-2.9657412 -3.1088984 -0.99359393
-2.9822409 -3.1065946 -0.99584705
-2.9925263 -3.0966878 -0.99584705
-3.0090318 -3.0942564 -0.99810004
-3.0182002 -3.0853138 -0.99810004
-3.0347128 -3.0827606 -1.0003531
-3.0369906 -3.0668197 -0.99810004
-3.0603647 -3.0710659 -1.0026062
-3.0630984 -3.0545576 -1.0003531
-3.0865214 -3.0586345 -1.0048592
-3.0961137 -3.0489242 -1.0048592
-3.1056778 -3.0391815 -1.0048592
-3.122195 -3.0362017 -1.0071121
-3.1387239 -3.0331492 -1.0093653
-3.1482382 -3.0232728 -1.0093653
-3.1577206 -3.0133674 -1.0093653
-3.1813104 -3.0168409 -1.0138714
-3.1907725 -3.0068316 -1.0138714
-3.2067895 -3.0040123 -1.0161244
-3.2233427 -3.0005615 -1.0183775
-3.2327542 -2.9904194 -1.0183775
-3.249305 -2.9868426 -1.0206305
-3.2730596 -2.9897614 -1.0251366
-3.2824354 -2.9794648 -1.0251366
-3.2917798 -2.9691377 -1.0251366
-3.3010921 -2.9587808 -1.0251366
-3.3321972 -2.9678361 -1.0318958
-3.3488004 -2.96381 -1.0341487
-3.3434622 -2.940407 -1.0296427
-3.3600197 -2.9363 -1.0318958
-3.3834286 -2.9390953 -1.0364019
-3.4000201 -2.9348185 -1.0386549
-3.4092228 -2.9241233 -1.0386549
-3.4406371 -2.932358 -1.045414
-3.4498334 -2.9215336 -1.045414
-3.4515409 -2.9044073 -1.043161
-3.558672 -2.8817554 -1.0589323
-3.5444369 -2.8528581 -1.0521733
-3.5609901 -2.8477943 -1.0544262
-3.585176 -2.8487144 -1.0589323
-3.5941086 -2.837436 -1.0589323
-3.6030045 -2.8261316 -1.0589323
-3.6118646 -2.8147991 -1.0589323
-3.6438003 -2.8213334 -1.0656915
-3.6680911 -2.8217521 -1.0701976
-3.6846793 -2.8161297 -1.0724505
-1.9714278 -6.1810226 -1.2651201
-1.9667403 -6.1000662 -1.2498085
-1.9933355 -5.6352549 -1.1655948
-1.9858747 -5.4502215 -1.1311438
-1.9962065 -5.4255338 -1.1273159
-2.0928013 -4.7517543 -1.0124789
-1.9104791 -4.123311 -0.88615835
-1.9192703 -4.1083956 -0.88424438
-1.9279848 -4.0934668 -0.88233048
-1.9359134 -4.0788608 -0.88041645
-1.9529537 -4.0816131 -0.88233048
-1.9565303 -4.0581179 -0.87850249
-1.9692708 -4.0519505 -0.87850249
-1.9776719 -4.0369301 -0.87658858
-1.9997426 -4.0479493 -0.88041645
-2.012449 -4.0416474 -0.88041645
-2.0258408 -4.0349517 -0.88041645
-2.0378048 -4.0289226 -0.88041645
-2.0459936 -4.0137563 -0.87850249
-2.0630784 -4.0160394 -0.88041645
-2.2022605 -3.8625412 -0.86701882
-2.2192736 -3.8641145 -0.86893278
-2.7325461 -4.6556497 -1.0526719
-2.7571473 -4.6639409 -1.0564998
-2.7717874 -4.6552553 -1.0564998
-2.7863989 -4.6465244 -1.0564998
-2.81113 -4.654552 -1.0603276
-2.8410408 -4.6708541 -1.0660695
-3.0900338 -4.6756215 -1.0928649
-3.0503354 -4.5841756 -1.0737252
-3.0529995 -4.5587945 -1.0698974
-3.0555413 -4.5334382 -1.0660695
-3.0697675 -4.5238171 -1.0660695
-3.0618176 -4.4817328 -1.0584137
-3.0647593 -4.4559169 -1.0545858
-3.0731535 -4.438199 -1.0526719
-3.064631 -4.3963141 -1.0450162
-3.0671501 -4.3705969 -1.0411882
-3.0752025 -4.3529229 -1.0392742
-3.072552 -4.3187079 -1.0335324
-3.0975325 -4.3249946 -1.0373603
-3.0988753 -4.2998586 -1.0335324
-3.1123676 -4.2901025 -1.0335324
-3.2003164 -4.3839059 -1.0584137
-3.3404756 -3.6352851 -0.96271622
-3.3585429 -3.6319799 -0.96463025
-3.5541885 -3.6766155 -0.99716741
-3.5657208 -3.6654322 -0.99716741
-3.5971758 -3.6758802 -1.0029092
-3.633378 -3.6677845 -1.0067371
-3.6795301 -3.6911077 -1.0163069
-3.7050097 -3.6933897 -1.0201348
-3.7165956 -3.6817307 -1.0201348
-3.6861761 -3.6287227 -1.008651
-3.6624758 -3.5828068 -0.99908131
-3.6737137 -3.5712829 -0.99908131
-3.6566775 -3.5324471 -0.99142551
-3.7031612 -3.5549269 -1.0009953
-3.7285151 -3.5568252 -1.0048232
-3.7539165 -3.5585999 -1.008651
-3.7865107 -3.5669794 -1.0143929
-2.0409534 -6.1281891 -1.0253812
-2.0633202 -6.0059361 -1.0081347
-2.0770166 -5.697269 -0.96266681
-2.0846667 -5.6629114 -0.95796317
-2.0924578 -5.5229487 -0.937581
-2.0921593 -5.4702239 -0.92974168
-2.1284921 -4.9115982 -0.8497808
-2.1377378 -4.8104711 -0.83567005
-2.2160544 -4.0899725 -0.73846263
-2.2449298 -4.0516276 -0.73532695
-2.2383926 -4.0100594 -0.72905546
-2.2606604 -4.0202255 -0.73219121
-2.5934539 -4.5468106 -0.83096641
-2.5634446 -4.4615688 -0.81685573
-3.2280643 -4.6601806 -0.89995229
-3.2175589 -4.5832233 -0.88897735
-3.2127292 -4.5140696 -0.87957013
-3.2268927 -4.5039558 -0.87957013
-3.257571 -4.5183945 -0.88427371
-3.4307272 -4.6978092 -0.92347026
-3.468868 -4.7188382 -0.92974168
-3.636416 -4.9143357 -0.97050613
-3.6282399 -4.8712039 -0.96423465
-3.6257522 -4.8360748 -0.95953107
-3.6349769 -4.8167772 -0.95796317
-3.6560657 -4.8131986 -0.95953107
-3.3832324 -4.1482539 -0.8497808
-3.3704667 -4.1076574 -0.84350938
-3.4022219 -4.1198931 -0.8482129
-3.6058471 -3.9962759 -0.85448432
-3.6117461 -3.9776154 -0.85291654
-3.6242228 -3.9662507 -0.85291654
-3.6359758 -3.9554789 -0.85291654
-3.6416769 -3.9367871 -0.85134864
-3.6607566 -3.9325559 -0.85291654
-3.673094 -3.9210348 -0.85291654
-3.6853924 -3.9094777 -0.85291654
-3.7044544 -3.9050446 -0.85448432
-3.764442 -3.9433942 -0.86545938
-2.149646 -5.6709075 -0.74291754
-2.1639042 -5.6548562 -0.74170166
-2.167928 -5.5148945 -0.72589493
-2.1935282 -5.5261264 -0.72832674
-2.285491 -4.248168 -0.59092951
-2.303555 -4.2496939 -0.59214544
-2.3483174 -4.2364759 -0.59336138
-2.3616154 -4.2290773 -0.59336138
-2.3846221 -4.2389398 -0.59579319
-2.4028211 -4.2400622 -0.59700906
-2.410471 -4.2242942 -0.59579319
-3.2060118 -5.0188899 -0.72954267
-3.2387519 -5.0332708 -0.73319036
-3.5542896 -4.2735691 -0.68090647
-3.5485852 -4.2395473 -0.67725873
-3.5611477 -4.2290001 -0.67725873
-3.5744162 -4.2177916 -0.67725873
-3.5876503 -4.2065406 -0.67725873
-3.5943825 -4.1877179 -0.67604285
-3.6204977 -4.1914277 -0.67847466
-3.6336467 -4.1800337 -0.67847466
-3.6525674 -4.1767054 -0.67969054
-2.2972214 -5.3883648 -0.51253706
-3.4463558 -4.4751835 -0.49423224
-3.4848101 -4.4958286 -0.49771887
-3.5111716 -4.5005679 -0.49946219
