# .PCD v0.7 - Point Cloud Data file format
VERSION 0.7
FIELDS x y z normal_x normal_y normal_z curvature
SIZE 4 4 4 4 4 4 4
TYPE F F F F F F F
COUNT 1 1 1 1 1 1 1
WIDTH 228
HEIGHT 1
VIEWPOINT 0 0 0 1 0 0 0
POINTS 228
DATA ascii
0.81634474 0.53270054 -1.1628649 0 0 0 4.6121418e-38
0.83996463 0.60765958 -1.1421918 0 0 0 4.6121418e-38
0.8692764 0.69058228 -1.1189345 0 0 0 4.6121418e-38
0.87609971 0.73080301 -1.1085979 0 0 0 4.6121418e-38
0.82303882 0.66068339 -1.1318552 0 0 0 4.6121418e-38
0.81137967 0.66706395 -1.1318552 0 0 0 4.6121418e-38
0.80441546 0.68193507 -1.129271 0 0 0 4.6121418e-38
0.38974166 1.4702051 -1.0181528 0 0 0 4.6121418e-38
0.35557079 1.4485264 -1.0284895 0 0 0 4.6121418e-38
-0.36444187 1.788667 -1.1034296 0 0 0 4.6121418e-38
-0.39518285 1.7806687 -1.111182 0 0 0 4.6121418e-38
-0.42709661 1.805392 -1.1137662 0 0 0 4.6121418e-38
-0.4580102 1.7978764 -1.1215185 0 0 0 4.6121418e-38
-0.4890039 1.7905293 -1.129271 0 0 0 4.6121418e-38
-0.75359702 1.6916916 -1.2016271 0 0 0 4.6121418e-38
-0.8163631 1.6627896 -1.2197161 0 0 0 4.6121418e-38
-0.82486725 1.6743157 -1.2197161 0 0 0 4.6121418e-38
0.87948668 -1.3041096 -1.3901304 0 0 0 4.6121418e-38
0.88055062 -1.1909323 -1.3653468 0 0 0 4.6121418e-38
0.87290239 -1.157196 -1.3585876 0 0 0 4.6121418e-38
0.87866557 -1.0868063 -1.3428164 0 0 0 4.6121418e-38
0.86455953 -1.0194569 -1.329298 0 0 0 4.6121418e-38
0.84131455 -0.22299814 -1.1603194 0 0 0 4.6121418e-38
0.86220753 -0.13641644 -1.1400421 0 0 0 4.6121418e-38
0.84013414 -0.14796305 -1.1445482 0 0 0 4.6121418e-38
0.77535129 0.36928654 -1.043161 0 0 0 4.6121418e-38
0.75730109 0.42271471 -1.0341487 0 0 0 4.6121418e-38
0.7579565 0.45546222 -1.0273896 0 0 0 4.6121418e-38
0.75026369 0.47063136 -1.0251366 0 0 0 4.6121418e-38
0.53960776 0.92665601 -0.95979822 0 0 0 4.6121418e-38
0.50256586 0.9635601 -0.95754522 0 0 0 4.6121418e-38
0.48076868 0.95492435 -0.96205127 0 0 0 4.6121418e-38
0.47560406 0.97037363 -0.95979822 0 0 0 4.6121418e-38
0.45987582 0.99330783 -0.95754522 0 0 0 4.6121418e-38
0.44867182 1.0012481 -0.95754522 0 0 0 4.6121418e-38
0.4281044 1.0159702 -0.95754522 0 0 0 4.6121418e-38
0.41184258 1.0157032 -0.95979822 0 0 0 4.6121418e-38
0.40188384 1.022948 -0.95979822 0 0 0 4.6121418e-38
0.37982726 1.0149467 -0.96430427 0 0 0 4.6121418e-38
0.34242225 1.0305645 -0.96655738 0 0 0 4.6121418e-38
0.1101222 1.1409333 -0.98007566 0 0 0 4.6121418e-38
0.10629129 1.1569693 -0.97782254 0 0 0 4.6121418e-38
0.07082653 1.1360137 -0.98683482 0 0 0 4.6121418e-38
0.047932863 1.1300032 -0.99134094 0 0 0 4.6121418e-38
0.028159142 1.147171 -0.99134094 0 0 0 4.6121418e-38
0.043761253 1.185317 -0.98232877 0 0 0 4.6121418e-38
0.0008161068 1.1973789 -0.98683482 0 0 0 4.6121418e-38
-0.022203207 1.1918693 -0.99134094 0 0 0 4.6121418e-38
-0.03219223 1.2009044 -0.99134094 0 0 0 4.6121418e-38
-0.029011011 1.2243581 -0.98683482 0 0 0 4.6121418e-38
-0.051531076 1.2185602 -0.99134094 0 0 0 4.6121418e-38
-0.054820776 1.2348404 -0.98908782 0 0 0 4.6121418e-38
-0.071309805 1.2368433 -0.99134094 0 0 0 4.6121418e-38
-0.081156969 1.2460325 -0.99134094 0 0 0 4.6121418e-38
-0.10433435 1.2410669 -0.99584705 0 0 0 4.6121418e-38
-0.10076261 1.2645013 -0.99134094 0 0 0 4.6121418e-38
-0.11724615 1.266732 -0.99359393 0 0 0 4.6121418e-38
-0.13374591 1.2690358 -0.99584705 0 0 0 4.6121418e-38
-0.14403129 1.2789426 -0.99584705 0 0 0 4.6121418e-38
-0.16053677 1.281374 -0.99810004 0 0 0 4.6121418e-38
-0.16970515 1.2903166 -0.99810004 0 0 0 4.6121418e-38
-0.18621778 1.2928698 -1.0003531 0 0 0 4.6121418e-38
-0.18849564 1.3088107 -0.99810004 0 0 0 4.6121418e-38
-0.21186972 1.3045645 -1.0026062 0 0 0 4.6121418e-38
-0.21460342 1.3210728 -1.0003531 0 0 0 4.6121418e-38
-0.23802638 1.3169959 -1.0048592 0 0 0 4.6121418e-38
-0.24761868 1.3267062 -1.0048592 0 0 0 4.6121418e-38
-0.25718284 1.3364489 -1.0048592 0 0 0 4.6121418e-38
-0.2737 1.3394287 -1.0071121 0 0 0 4.6121418e-38
-0.29022884 1.3424811 -1.0093653 0 0 0 4.6121418e-38
-0.29974318 1.3523576 -1.0093653 0 0 0 4.6121418e-38
-0.30922556 1.362263 -1.0093653 0 0 0 4.6121418e-38
-0.33281541 1.3587894 -1.0138714 0 0 0 4.6121418e-38
-0.34227753 1.3687987 -1.0138714 0 0 0 4.6121418e-38
-0.35829449 1.371618 -1.0161244 0 0 0 4.6121418e-38
-0.37484765 1.3750689 -1.0183775 0 0 0 4.6121418e-38
-0.38425922 1.385211 -1.0183775 0 0 0 4.6121418e-38
-0.40081 1.3887877 -1.0206305 0 0 0 4.6121418e-38
-0.4245646 1.385869 -1.0251366 0 0 0 4.6121418e-38
-0.43394041 1.3961656 -1.0251366 0 0 0 4.6121418e-38
-0.44328475 1.4064927 -1.0251366 0 0 0 4.6121418e-38
-0.45259714 1.4168496 -1.0251366 0 0 0 4.6121418e-38
-0.48370218 1.4077942 -1.0318958 0 0 0 4.6121418e-38
-0.50030541 1.4118204 -1.0341487 0 0 0 4.6121418e-38
-0.49496722 1.4352233 -1.0296427 0 0 0 4.6121418e-38
-0.51152468 1.4393303 -1.0318958 0 0 0 4.6121418e-38
-0.53493357 1.4365351 -1.0364019 0 0 0 4.6121418e-38
-0.55152512 1.4408119 -1.0386549 0 0 0 4.6121418e-38
-0.56072783 1.4515071 -1.0386549 0 0 0 4.6121418e-38
-0.59214211 1.4432724 -1.045414 0 0 0 4.6121418e-38
-0.60133839 1.4540968 -1.045414 0 0 0 4.6121418e-38
-0.60304594 1.4712231 -1.043161 0 0 0 4.6121418e-38
-0.71017694 1.493875 -1.0589323 0 0 0 4.6121418e-38
-0.69594193 1.5227723 -1.0521733 0 0 0 4.6121418e-38
-0.71249509 1.5278361 -1.0544262 0 0 0 4.6121418e-38
-0.73668098 1.526916 -1.0589323 0 0 0 4.6121418e-38
-0.74561357 1.5381944 -1.0589323 0 0 0 4.6121418e-38
-0.75450945 1.5494988 -1.0589323 0 0 0 4.6121418e-38
-0.76336956 1.5608313 -1.0589323 0 0 0 4.6121418e-38
-0.79530525 1.554297 -1.0656915 0 0 0 4.6121418e-38
-0.81959605 1.5538783 -1.0701976 0 0 0 4.6121418e-38
-0.83618426 1.5595007 -1.0724505 0 0 0 4.6121418e-38
0.87706721 -1.8053923 -1.2651201 0 0 0 4.6121418e-38
0.88175476 -1.7244358 -1.2498085 0 0 0 4.6121418e-38
0.85515952 -1.2596245 -1.1655948 0 0 0 4.6121418e-38
0.86262035 -1.0745912 -1.1311438 0 0 0 4.6121418e-38
0.85228848 -1.0499034 -1.1273159 0 0 0 4.6121418e-38
0.75569367 -0.37612391 -1.0124789 0 0 0 4.6121418e-38
0.93801594 0.25231934 -0.88615835 0 0 0 4.6121418e-38
0.92922473 0.2672348 -0.88424438 0 0 0 4.6121418e-38
0.92051017 0.28216362 -0.88233048 0 0 0 4.6121418e-38
0.91258156 0.29676962 -0.88041645 0 0 0 4.6121418e-38
0.89554131 0.29401731 -0.88233048 0 0 0 4.6121418e-38
0.89196467 0.31751251 -0.87850249 0 0 0 4.6121418e-38
0.87922418 0.32367992 -0.87850249 0 0 0 4.6121418e-38
0.87082314 0.33870029 -0.87658858 0 0 0 4.6121418e-38
0.84875238 0.32768106 -0.88041645 0 0 0 4.6121418e-38
0.83604598 0.33398294 -0.88041645 0 0 0 4.6121418e-38
0.82265425 0.34067869 -0.88041645 0 0 0 4.6121418e-38
0.81069016 0.34670782 -0.88041645 0 0 0 4.6121418e-38
0.80250144 0.3618741 -0.87850249 0 0 0 4.6121418e-38
0.7854166 0.35959101 -0.88041645 0 0 0 4.6121418e-38
0.64623451 0.51308918 -0.86701882 0 0 0 4.6121418e-38
0.62922144 0.51151586 -0.86893278 0 0 0 4.6121418e-38
0.11594892 -0.28001928 -1.0526719 0 0 0 4.6121418e-38
0.091347694 -0.28831053 -1.0564998 0 0 0 4.6121418e-38
0.076707602 -0.27962494 -1.0564998 0 0 0 4.6121418e-38
0.062096119 -0.27089405 -1.0564998 0 0 0 4.6121418e-38
0.03736496 -0.2789216 -1.0603276 0 0 0 4.6121418e-38
0.0074541569 -0.29522371 -1.0660695 0 0 0 4.6121418e-38
-0.24153876 -0.29999113 -1.0928649 0 0 0 4.6121418e-38
-0.2018404 -0.20854521 -1.0737252 0 0 0 4.6121418e-38
-0.20450449 -0.18316412 -1.0698974 0 0 0 4.6121418e-38
-0.20704627 -0.15780783 -1.0660695 0 0 0 4.6121418e-38
-0.22127247 -0.14818668 -1.0660695 0 0 0 4.6121418e-38
-0.21332264 -0.10610247 -1.0584137 0 0 0 4.6121418e-38
-0.21626425 -0.080286503 -1.0545858 0 0 0 4.6121418e-38
-0.22465849 -0.062568665 -1.0526719 0 0 0 4.6121418e-38
-0.21613598 -0.020683765 -1.0450162 0 0 0 4.6121418e-38
-0.21865511 0.005033493 -1.0411882 0 0 0 4.6121418e-38
-0.22670746 0.022707462 -1.0392742 0 0 0 4.6121418e-38
-0.22405696 0.056922436 -1.0335324 0 0 0 4.6121418e-38
-0.2490375 0.050635815 -1.0373603 0 0 0 4.6121418e-38
-0.25038028 0.075771809 -1.0335324 0 0 0 4.6121418e-38
-0.26387262 0.085527897 -1.0335324 0 0 0 4.6121418e-38
-0.35182142 -0.0082755089 -1.0584137 0 0 0 4.6121418e-38
-0.49198055 0.74034524 -0.96271622 0 0 0 4.6121418e-38
-0.51004791 0.74365044 -0.96463025 0 0 0 4.6121418e-38
-0.70569348 0.6990149 -0.99716741 0 0 0 4.6121418e-38
-0.71722579 0.71019816 -0.99716741 0 0 0 4.6121418e-38
-0.74868083 0.69975019 -1.0029092 0 0 0 4.6121418e-38
-0.78488302 0.70784593 -1.0067371 0 0 0 4.6121418e-38
-0.83103514 0.68452263 -1.0163069 0 0 0 4.6121418e-38
-0.85651469 0.68224072 -1.0201348 0 0 0 4.6121418e-38
-0.86810064 0.69389963 -1.0201348 0 0 0 4.6121418e-38
-0.83768106 0.74690771 -1.008651 0 0 0 4.6121418e-38
-0.81398082 0.79282355 -0.99908131 0 0 0 4.6121418e-38
-0.82521868 0.80434752 -0.99908131 0 0 0 4.6121418e-38
-0.80818248 0.84318328 -0.99142551 0 0 0 4.6121418e-38
-0.85466623 0.82070351 -1.0009953 0 0 0 4.6121418e-38
-0.88002014 0.81880522 -1.0048232 0 0 0 4.6121418e-38
-0.9054215 0.81703043 -1.008651 0 0 0 4.6121418e-38
-0.9380157 0.80865097 -1.0143929 0 0 0 4.6121418e-38
0.80754161 -1.7525587 -1.0253812 0 0 0 4.6121418e-38
0.78517485 -1.6303058 -1.0081347 0 0 0 4.6121418e-38
0.77147841 -1.3216386 -0.96266681 0 0 0 4.6121418e-38
0.76382828 -1.287281 -0.95796317 0 0 0 4.6121418e-38
0.75603724 -1.1473184 -0.937581 0 0 0 4.6121418e-38
0.75633574 -1.0945935 -0.92974168 0 0 0 4.6121418e-38
0.72000289 -0.53596783 -0.8497808 0 0 0 4.6121418e-38
0.71075726 -0.43484068 -0.83567005 0 0 0 4.6121418e-38
0.63244057 0.28565788 -0.73846263 0 0 0 4.6121418e-38
0.60356522 0.32400274 -0.73532695 0 0 0 4.6121418e-38
0.61010242 0.36557102 -0.72905546 0 0 0 4.6121418e-38
0.5878346 0.35540485 -0.73219121 0 0 0 4.6121418e-38
0.25504112 -0.17118025 -0.83096641 0 0 0 4.6121418e-38
0.28505039 -0.085938454 -0.81685573 0 0 0 4.6121418e-38
-0.37956929 -0.28455019 -0.89995229 0 0 0 4.6121418e-38
-0.36906385 -0.20759296 -0.88897735 0 0 0 4.6121418e-38
-0.36423421 -0.13843918 -0.87957013 0 0 0 4.6121418e-38
-0.3783977 -0.12832546 -0.87957013 0 0 0 4.6121418e-38
-0.40907598 -0.14276409 -0.88427371 0 0 0 4.6121418e-38
-0.58223224 -0.32217884 -0.92347026 0 0 0 4.6121418e-38
-0.62037301 -0.34320784 -0.92974168 0 0 0 4.6121418e-38
-0.78792095 -0.53870535 -0.97050613 0 0 0 4.6121418e-38
-0.77974486 -0.49557352 -0.96423465 0 0 0 4.6121418e-38
-0.7772572 -0.46044445 -0.95953107 0 0 0 4.6121418e-38
-0.78648186 -0.44114685 -0.95796317 0 0 0 4.6121418e-38
-0.8075707 -0.43756819 -0.95953107 0 0 0 4.6121418e-38
-0.53473735 0.22737646 -0.8497808 0 0 0 4.6121418e-38
-0.5219717 0.26797295 -0.84350938 0 0 0 4.6121418e-38
-0.55372691 0.2557373 -0.8482129 0 0 0 4.6121418e-38
-0.75735211 0.37935448 -0.85448432 0 0 0 4.6121418e-38
-0.76325107 0.39801502 -0.85291654 0 0 0 4.6121418e-38
-0.77572775 0.40937972 -0.85291654 0 0 0 4.6121418e-38
-0.78748083 0.42015147 -0.85291654 0 0 0 4.6121418e-38
-0.7931819 0.43884325 -0.85134864 0 0 0 4.6121418e-38
-0.81226158 0.44307446 -0.85291654 0 0 0 4.6121418e-38
-0.82459903 0.45459557 -0.85291654 0 0 0 4.6121418e-38
-0.83689737 0.46615267 -0.85291654 0 0 0 4.6121418e-38
-0.85595942 0.47058582 -0.85448432 0 0 0 4.6121418e-38
-0.91594696 0.43223619 -0.86545938 0 0 0 4.6121418e-38
0.69884896 -1.2952771 -0.74291754 0 0 0 4.6121418e-38
0.68459082 -1.2792258 -0.74170166 0 0 0 4.6121418e-38
0.68056703 -1.1392641 -0.72589493 0 0 0 4.6121418e-38
0.65496683 -1.150496 -0.72832674 0 0 0 4.6121418e-38
0.56300402 0.12746239 -0.59092951 0 0 0 4.6121418e-38
0.54493999 0.12593651 -0.59214544 0 0 0 4.6121418e-38
0.50017762 0.13915443 -0.59336138 0 0 0 4.6121418e-38
0.48687959 0.14655304 -0.59336138 0 0 0 4.6121418e-38
0.46387291 0.13669062 -0.59579319 0 0 0 4.6121418e-38
0.44567394 0.13556814 -0.59700906 0 0 0 4.6121418e-38
0.43802404 0.15133619 -0.59579319 0 0 0 4.6121418e-38
-0.35751677 -0.64325953 -0.72954267 0 0 0 4.6121418e-38
-0.39025688 -0.65764046 -0.73319036 0 0 0 4.6121418e-38
-0.70579457 0.10206127 -0.68090647 0 0 0 4.6121418e-38
-0.70009017 0.13608313 -0.67725873 0 0 0 4.6121418e-38
-0.71265268 0.14663029 -0.67725873 0 0 0 4.6121418e-38
-0.72592115 0.15783882 -0.67725873 0 0 0 4.6121418e-38
-0.73915529 0.16908979 -0.67725873 0 0 0 4.6121418e-38
-0.74588752 0.18791246 -0.67604285 0 0 0 4.6121418e-38
-0.7720027 0.18420267 -0.67847466 0 0 0 4.6121418e-38
-0.78515172 0.19559669 -0.67847466 0 0 0 4.6121418e-38
-0.80407238 0.19892502 -0.67969054 0 0 0 4.6121418e-38
0.55127358 -1.0127344 -0.51253706 0 0 0 4.6121418e-38
-0.59786081 -0.099553108 -0.49423224 0 0 0 4.6121418e-38
-0.63631511 -0.12019825 -0.49771887 0 0 0 4.6121418e-38
-0.66267657 -0.12493753 -0.49946219 0 0 0 4.6121418e-38
