# .PCD v0.7 - Point Cloud Data file format
VERSION 0.7
FIELDS x y z
SIZE 4 4 4
TYPE F F F
COUNT 1 1 1
WIDTH 170
HEIGHT 1
VIEWPOINT 0 0 0 1 0 0 0
POINTS 170
DATA ascii
-1.0258881 10.082187 -1.2414384
-0.98544699 9.9964581 -1.2304952
-0.93689072 9.8017225 -1.2061772
-0.89513415 9.6860132 -1.1915864
-0.86028576 9.6393452 -1.1855068
-0.82574868 9.5925541 -1.1794273
-0.79478574 9.5852089 -1.1782113
-0.76466632 9.5876589 -1.1782113
-0.73378581 9.5801163 -1.1769954
-0.70462638 9.5723534 -1.1757796
-0.6741299 9.5446968 -1.1721318
-0.64413834 9.5467682 -1.1721318
-0.61414039 9.5487452 -1.1721318
-0.58353502 9.54072 -1.170916
-0.55356097 9.5425062 -1.170916
-0.52249402 9.5243759 -1.1684841
-0.4942295 9.5258846 -1.1684841
-0.46333167 9.5075626 -1.1660523
-0.43527031 9.5486336 -1.170916
-0.40443042 9.5301189 -1.1684841
-0.37576252 9.5213585 -1.1672682
-0.34584573 9.5224924 -1.1672682
-0.31758761 9.5234766 -1.1672682
-0.28736937 9.5145073 -1.1660523
-0.25913975 9.5153179 -1.1660523
-0.23090784 9.5160446 -1.1660523
-0.20288068 9.5266104 -1.1672682
-0.1762782 9.5271406 -1.1672682
-0.14800704 9.5276213 -1.1672682
-0.11961439 9.5180941 -1.1660523
-0.091279574 9.508482 -1.1648364
-0.062998317 9.498785 -1.1636205
-0.034743562 9.4790792 -1.1611887
-0.0066225599 9.4890652 -1.1624045
0.021529991 9.4890432 -1.1624045
0.048028279 9.488946 -1.1624045
0.07626199 9.4986877 -1.1636205
0.10300182 9.5182886 -1.1660523
0.13470533 9.5278187 -1.1672682
0.16480865 9.5372734 -1.1684841
0.19497269 9.5466318 -1.1697
0.225431 9.5658178 -1.1721318
0.25407562 9.5750294 -1.1733477
0.28209394 9.504734 -1.1648364
0.3119525 9.5038013 -1.1648364
0.34680307 9.6416454 -1.181859
0.3796573 9.7496758 -1.1952341
0.40986753 9.7385178 -1.1940181
0.43742004 9.7075119 -1.1903704
0.46695894 9.6862602 -1.1879386
0.49433234 9.6252699 -1.1806432
0.5245685 9.6236696 -1.1806432
0.55765635 9.6715212 -1.1867228
0.58924252 9.6895351 -1.1891545
0.61988497 9.7174616 -1.1928022
0.65836626 9.8343096 -1.2073931
0.70175248 10.01042 -1.2292793
-1.0087291 9.9307613 -0.87340504
-0.95606506 9.7157726 -0.85422856
-0.91682297 9.6094799 -0.8446402
-0.88480133 9.592474 -0.84289694
-0.85200703 9.5654373 -0.8402819
-0.82195854 9.5680666 -0.8402819
-0.7927143 9.5805302 -0.84115356
-0.76339984 9.5929041 -0.84202522
-0.73250186 9.5853214 -0.84115356
-0.70259649 9.5675831 -0.83941031
-0.67351198 9.5596876 -0.83853859
-0.64280438 9.5518169 -0.83766693
-0.61215293 9.543848 -0.83679521
-0.58216888 9.5457239 -0.83679521
-0.55160397 9.5375605 -0.83592361
-0.52109599 9.5292997 -0.83505195
-0.49230248 9.5208549 -0.8341803
-0.46238673 9.5223541 -0.8341803
-0.43247095 9.5237598 -0.8341803
-0.40297154 9.5350246 -0.83505195
-0.37389827 9.5162697 -0.83330858
-0.34435734 9.5273533 -0.8341803
-0.31542426 9.5084209 -0.83243698
-0.28555295 9.5093641 -0.83243698
-0.25733858 9.51017 -0.83243698
-0.22936186 9.5208502 -0.83330858
-0.20068841 9.5015697 -0.83156532
-0.17415588 9.5020924 -0.83156532
-0.14611204 9.5125284 -0.83243698
-0.11801233 9.5228806 -0.83330858
-0.08966472 9.5132284 -0.83243698
-0.061499543 9.5234137 -0.83330858
-0.033279255 9.5335159 -0.8341803
-0.0049897996 9.5335732 -0.8341803
0.023270551 9.5235834 -0.83330858
0.049865287 9.5234814 -0.83330858
0.078203484 9.5332537 -0.8341803
0.10482501 9.5329981 -0.8341803
0.13657957 9.5425587 -0.83505195
0.16673154 9.5520439 -0.83592361
0.1967393 9.5514727 -0.83592361
0.2267451 9.550807 -0.83592361
0.25561386 9.5700092 -0.83766693
0.28627217 9.5890741 -0.83941031
0.31672421 9.5980835 -0.8402819
0.34651604 9.5870857 -0.83941031
0.37612802 9.6158781 -0.84202522
0.40717655 9.6345549 -0.84376854
0.4353109 9.623353 -0.84289694
0.46409702 9.5920868 -0.8402819
0.49320379 9.5706844 -0.83853859
0.52381247 9.5790348 -0.83941031
0.55505359 9.5972328 -0.84115356
0.58580774 9.6053848 -0.84202522
0.61684865 9.6433706 -0.84551191
0.65247828 9.7209024 -0.85248518
0.6983785 9.9374275 -0.87166178
-1.0124424 9.9846487 -0.53315794
-0.97228581 9.8983364 -0.52838343
-0.92776257 9.7421236 -0.51989532
-0.88616848 9.6256628 -0.51352924
-0.85503727 9.618453 -0.51299876
-0.8231163 9.6011925 -0.51193774
-0.79541159 9.6335869 -0.51352924
-0.7580263 9.5464478 -0.50875473
-0.73182911 9.5985661 -0.5114072
-0.70407319 9.6106548 -0.51193774
-0.67556101 9.6127014 -0.51193774
-0.644687 9.6048126 -0.5114072
-0.61386931 9.5968266 -0.51087672
-0.5843249 9.608674 -0.5114072
-0.55413735 9.6104622 -0.5114072
-0.52285737 9.5922136 -0.51034623
-0.49233589 9.5538321 -0.50822419
-0.46183392 9.5453577 -0.50769371
-0.43139461 9.5367851 -0.50716317
-0.40143365 9.5380936 -0.50716317
-0.37313351 9.5392427 -0.50716317
-0.34316057 9.5403681 -0.50716317
-0.31484944 9.5413437 -0.50716317
-0.28487471 9.5422859 -0.50716317
-0.25656268 9.5430889 -0.50716317
-0.22800964 9.5338259 -0.50663269
-0.19971842 9.534461 -0.50663269
-0.17327528 9.5449648 -0.50716317
-0.14495122 9.5454369 -0.50716317
-0.11663046 9.545825 -0.50716317
-0.08821629 9.5361443 -0.50663269
-0.059918795 9.5363636 -0.50663269
-0.031592201 9.5265141 -0.5061022
-0.0033270165 9.5365515 -0.50663269
0.024966607 9.5365191 -0.50663269
0.051651485 9.5463972 -0.50716317
0.079975948 9.5462027 -0.50716317
0.10685671 9.5659132 -0.50822419
0.13872249 9.575491 -0.50875473
0.16898005 9.5849915 -0.50928521
0.19971348 9.6143656 -0.51087672
0.22967812 9.6037073 -0.51034623
0.25844023 9.6129656 -0.51087672
0.28863892 9.6121063 -0.51087672
0.3191658 9.6211319 -0.5114072
0.34938985 9.6200819 -0.5114072
0.37753966 9.609026 -0.51087672
0.40814874 9.6177683 -0.5114072
0.43668336 9.6165152 -0.5114072
0.46882966 9.6549921 -0.51352924
0.49761239 9.6235542 -0.51193774
0.52893716 9.6418858 -0.51299876
0.56269521 9.6999912 -0.51618177
0.59621394 9.7480116 -0.51883429
0.62705177 9.7760963 -0.5204258
0.67184168 9.9833088 -0.53156644
