# .PCD v0.7 - Point Cloud Data file format
VERSION 0.7
FIELDS x y z
SIZE 4 4 4
TYPE F F F
COUNT 1 1 1
WIDTH 754
HEIGHT 1
VIEWPOINT 0 0 0 1 0 0 0
POINTS 754
DATA ascii
1.8416722 5.2657661 -0.51220262
1.8622886 5.2627358 -0.51256835
1.8795406 5.2588959 -0.41393536
1.8680881 5.2268524 -0.50964254
1.8960901 5.2444687 -0.41334403
1.8899416 5.2274623 -0.51037395
1.9193971 5.2572217 -0.41482237
1.908404 5.2271118 -0.51092255
1.9331257 5.2351832 -0.41363969
1.9261696 5.2163453 -0.51055682
1.9571849 5.2411423 -0.41467455
1.949456 5.2204452 -0.51165402
1.9875342 5.2715406 -0.21820039
1.9743444 5.236834 -0.41482237
1.9630365 5.2068405 -0.51092255
1.9982992 5.2418118 -0.21727154
2.0250707 5.3120365 -0.32092354
1.9984982 5.2426085 -0.41585723
1.9778508 5.1884446 -0.50982541
2.0095918 5.2139397 -0.2164201
2.0631981 5.3530221 -0.32385436
2.023438 5.2501369 -0.4170399
1.999719 5.1885943 -0.51055682
2.0194407 5.1908379 -0.21572347
2.0438056 5.2534666 -0.3182182
2.0428143 5.2511897 -0.41763121
2.0131214 5.1748619 -0.50982541
2.0443037 5.1982803 -0.2163427
2.0542772 5.2236409 -0.3168655
2.0649669 5.251092 -0.41822255
2.0408211 5.1896901 -0.51201975
2.0530076 5.1647525 -0.21525905
2.0689833 5.2049427 -0.31618917
2.087146 5.2509017 -0.41881388
2.0561502 5.1729217 -0.51110542
2.0669909 5.1527128 -0.21502684
2.085325 5.1984172 -0.31618917
2.0984342 5.2313609 -0.41777906
2.0760987 5.1756787 -0.51201975
1.8469146 5.2592435 -0.57799512
2.0948727 5.1673274 -0.21595567
2.1066148 5.196291 -0.31652734
2.1258366 5.2439675 -0.41940522
1.8672839 5.2555509 -0.47962412
2.1055298 5.1938748 -0.51457983
1.8581861 5.2299447 -0.5755198
1.853207 5.2159309 -0.6719119
1.8443743 5.1910706 -0.76610112
2.1153131 5.1633129 -0.21611048
2.1324589 5.2051649 -0.31754184
2.1457984 5.2379861 -0.41955307
1.878446 5.2261691 -0.47756785
2.129082 5.1971807 -0.51567703
1.879361 5.2287149 -0.57613862
1.8723119 5.2091031 -0.6719119
1.8600379 5.1749549 -0.76472378
2.1422119 5.1824994 -0.21719414
2.1713862 5.2533383 -0.42132708
1.8975747 5.2277346 -0.47825328
2.1476812 5.1959882 -0.51622564
1.8930632 5.2153053 -0.57531351
1.8927321 5.2143931 -0.6733579
1.8742586 5.1634998 -0.76389736
2.1967752 5.2600684 -0.42250976
1.9139756 5.2132621 -0.47756785
2.1713161 5.1991081 -0.51732284
1.9128511 5.2101994 -0.5755198
1.9111469 5.2055573 -0.67311686
1.9047774 5.1882086 -0.76858044
2.2199163 5.2611694 -0.42324892
1.9323766 5.2043438 -0.47739649
2.1926801 5.19662 -0.51787138
1.940244 5.2255325 -0.57799512
1.9557836 5.2673845 -0.68203396
1.952051 5.2573314 -0.77987498
1.9702171 5.2555995 -0.11796259
2.2465889 5.2780271 -0.42517075
1.948717 5.1982474 -0.47739649
2.2175751 5.2098637 -0.51988292
1.9636339 5.2380385 -0.58005792
1.9548986 5.2147369 -0.67600888
1.9525645 5.2085109 -0.77353901
1.9845053 5.2352548 -0.11766842
2.2745852 5.2899132 -0.42679694
1.9727006 5.204113 -0.47859597
2.2523897 5.2382936 -0.5235402
1.9771781 5.2159252 -0.5784077
1.9796284 5.2223892 -0.67793691
1.9702373 5.1976147 -0.77298808
1.9852208 5.1879096 -0.11674388
2.3102398 5.3266573 -0.43034494
1.9883279 5.1960292 -0.47842464
2.3084586 5.3225503 -0.53268343
1.9935546 5.2096877 -0.5784077
1.9860913 5.1901841 -0.67456287
1.9787686 5.1710482 -0.76995784
2.0121582 5.2011118 -0.11720615
2.0059209 5.1849895 -0.47808191
2.3239553 5.3049326 -0.5317691
2.0033047 5.1782269 -0.57572609
2.0008028 5.1717596 -0.67311686
1.9977082 5.1637607 -0.76995784
2.0326643 5.1974263 -0.1172902
2.0314434 5.1943049 -0.47962412
2.0208211 5.1671443 -0.57531351
2.0154059 5.1532974 -0.67167085
2.0216715 5.1693182 -0.77188617
2.041641 5.1724157 -0.11686996
2.0477517 5.1878972 -0.47962412
2.0399659 5.1681719 -0.57613862
2.0345011 5.1543274 -0.6726349
2.032083 5.148201 -0.76968235
2.0672538 5.181613 -0.11724818
2.0726597 5.1951632 -0.48099497
2.0633173 5.1717463 -0.57737631
2.0600004 5.1634326 -0.67480391
2.0582788 5.1591172 -0.7724371
2.0854838 5.1721468 -0.11720615
2.095413 5.1967721 -0.48185173
2.0941617 5.1936693 -0.58067679
2.0759418 5.1484823 -0.67383987
2.0749519 5.1460271 -0.77161068
2.1164992 5.1940961 -0.11787854
2.1212134 5.2056651 -0.48339394
2.1109314 5.1804318 -0.58005792
2.1045377 5.164741 -0.67697293
2.1020217 5.158567 -0.77464092
1.8443526 5.163569 -0.85931253
1.9010611 5.2705855 -0.38256061
2.1383147 5.2008181 -0.4835653
2.1355169 5.1940136 -0.58232701
2.1230178 5.1636128 -0.67769593
2.1227372 5.1629305 -0.77629381
1.8505082 5.1298695 -0.8546676
1.8346465 5.0856204 -0.9426977
1.8342574 5.0845418 -1.0377626
1.8719711 5.1888003 -1.1561022
1.9176303 5.256084 -0.38201565
2.1619492 5.2039871 -0.48459342
2.1537764 5.1843147 -0.58212072
2.1525929 5.1814661 -0.68106991
2.1484859 5.1715798 -0.77877307
1.8733615 5.1341896 -0.8565256
1.858677 5.0936694 -0.94544607
1.8488411 5.0667138 -1.0355
1.8762137 5.1414495 -1.1470765
1.9355129 5.2537785 -0.38228813
2.1836791 5.2100334 -0.48579291
2.1777425 5.1958699 -0.58418351
2.168093 5.1728468 -0.68082893
2.1708481 5.17942 -0.78097689
1.8819674 5.1078844 -0.85311931
1.8685392 5.071166 -0.94235414
1.8613541 5.0516658 -1.0336145
1.8801742 5.1024685 -1.1396919
1.9561492 5.2503886 -0.38256061
2.2128608 5.2258492 -0.48802054
2.2022016 5.200676 -0.5856275
2.206392 5.2105722 -0.68685395
2.2037206 5.2042632 -0.78593546
1.9427601 5.2138958 -0.87200868
1.9146324 5.1381335 -0.95609605
1.8812284 5.0484905 -1.0343688
1.9036478 5.1083827 -1.1425637
1.9669325 5.2207627 -0.18312478
1.9760832 5.2450509 -0.38269687
2.2319999 5.2177033 -0.48802054
2.2267251 5.2053728 -0.58707142
2.2371881 5.2298317 -0.69046897
2.2352459 5.2252917 -0.79034311
1.9583735 5.197495 -0.87046039
1.9473466 5.1679564 -0.96296704
1.919804 5.0948629 -1.0453045
1.9175264 5.0885491 -1.1396919
2.0133138 5.2934065 -0.085506715
1.9868773 5.2238994 -0.18345284
2.0003541 5.2593322 -0.38419548
2.2665381 5.2527461 -0.49196172
2.306119 5.3444753 -0.6035738
2.3110287 5.3558536 -0.70806211
1.9718823 5.1839299 -0.86922175
1.9593693 5.1507635 -0.96090573
1.9462756 5.116343 -1.0509609
1.9376791 5.0934772 -1.1421535
2.0025556 5.2075977 -0.084238604
1.9916614 5.1792674 -0.18214059
2.0095496 5.2257857 -0.28303772
2.0167522 5.2445159 -0.38365054
2.3120484 5.3046842 -0.49761644
2.3264868 5.3378105 -0.60378009
2.3155711 5.3127661 -0.70348305
1.9922876 5.180356 -0.86984104
1.9803565 5.1490645 -0.96193641
1.9699503 5.1220078 -1.0536005
1.9570372 5.0881677 -1.1425637
2.0172813 5.1890397 -0.08405745
2.0135281 5.1793852 -0.18240304
2.0359273 5.2370024 -0.28404748
2.0460827 5.2631254 -0.38555789
2.3467298 5.3308258 -0.50087219
2.3476384 5.3328896 -0.60419261
2.3358278 5.3060608 -0.70372409
2.0091131 5.1674943 -0.86891204
1.9985014 5.139935 -0.96159285
1.9908456 5.120245 -1.0547318
1.9721262 5.0718389 -1.1405125
2.0306516 5.17523 -0.083936676
2.0334404 5.1823382 -0.18273111
2.0363185 5.1896729 -0.28182599
2.0465729 5.215807 -0.38256061
2.3500688 5.2932525 -0.70300108
2.0202849 5.1482821 -0.8667444
2.0182381 5.1428018 -0.9633106
2.0126617 5.1285925 -1.0577486
2.0130794 5.1293941 -1.1548713
2.0503433 5.1696119 -0.083966866
2.0465252 5.1599855 -0.1822062
2.0494347 5.1673207 -0.28101817
2.0752394 5.2323833 -0.38433173
2.3686414 5.2827916 -0.70276004
2.0442405 5.1536994 -0.86891204
2.0392532 5.1408644 -0.96434122
2.0307212 5.1193557 -1.0573715
2.0722868 5.223875 -1.1778457
2.0685329 5.1602058 -0.083936676
2.0713739 5.1672931 -0.18273111
2.0809946 5.1912928 -0.28273478
2.1010849 5.2414107 -0.38555789
1.8495458 5.2723284 -0.54656267
2.3814366 5.2596054 -0.70083207
2.0572338 5.1315002 -0.86643475
2.058815 5.1351843 -0.96468478
2.0531254 5.1209936 -1.0592569
2.0950618 5.2253289 -1.1798971
2.0922332 5.1722202 -0.084238604
2.0801015 5.1422296 -0.18207498
2.089803 5.1662126 -0.28172502
2.1265199 5.2569809 -0.38719276
1.86027 5.2503285 -0.44630447
1.850145 5.2214627 -0.54188955
2.3971236 5.2502918 -0.70059103
2.08446 5.1524868 -0.87107968
2.079371 5.1396499 -0.96674609
2.0736232 5.1254425 -1.0615195
2.1077964 5.2096486 -1.1778457
2.136147 5.2256031 -0.085234977
2.1178439 5.1808286 -0.1837153
2.1261077 5.2010441 -0.28404748
2.1397333 5.234376 -0.38610286
1.8801736 5.2453518 -0.44646421
1.8719568 5.2221417 -0.5426684
2.4047139 5.216228 -0.69721705
2.1025829 5.1429834 -0.87077004
2.0944667 5.1228752 -0.96502835
2.0983412 5.1323524 -1.0645362
2.1231725 5.1928287 -1.1757945
2.149792 5.2044392 -0.18483071
2.1672835 5.2467842 -0.38760146
1.8946292 5.225306 -0.44534606
1.8890488 5.2096319 -0.54208428
2.428843 5.2181792 -0.69866306
2.1274543 5.1498523 -0.87324733
2.1222565 5.1370163 -0.9691509
2.120888 5.1337037 -1.0664217
2.1481705 5.1994848 -1.1790766
1.8771991 5.1738524 -1.2498434
2.1960373 5.2694187 -0.3897813
1.9103501 5.2174559 -0.44518632
1.9074593 5.2092786 -0.5426684
2.4351027 5.1889548 -0.69577104
2.1436224 5.1431432 -0.87324733
2.1459646 5.14851 -0.97258639
2.1445622 5.1451449 -1.0701927
2.1622353 5.1872902 -1.1778457
1.8847214 5.1441226 -1.2440858
1.974869 5.3330436 -0.35460424
2.2300479 5.2962751 -0.39236987
1.9301525 5.2122889 -0.44534606
1.9320694 5.2171855 -0.54422611
2.4456043 5.1620522 -0.69336098
2.1670597 5.1461778 -0.87510532
2.170938 5.1551366 -0.97533482
2.1656926 5.1426806 -1.071324
2.1842721 5.1865468 -1.1794868
1.9049182 5.1408381 -1.2449715
1.9790305 5.2931581 -0.35236385
2.2466757 5.2892432 -0.39236987
1.9437252 5.19873 -0.44470713
1.9428732 5.1961746 -0.5426684
2.4498296 5.129262 -0.689987
2.4425828 5.114089 -0.78813928
2.191714 5.159349 -0.87851161
2.2102342 5.2026935 -0.98564124
2.1941257 5.1647758 -1.0773574
2.202086 5.1832623 -1.1803073
1.9149085 5.1183882 -1.2409855
2.0079863 5.3114586 -0.25348264
2.0012412 5.2933373 -0.3528617
2.2896514 5.3359833 -0.39645705
1.9677016 5.2046242 -0.44582528
1.9626091 5.1908803 -0.54286313
2.4591281 5.1005759 -0.68733597
2.4776561 5.1390057 -0.79337335
2.2285311 5.1930437 -0.88563383
2.2292881 5.1945577 -0.98564124
2.2200122 5.1729436 -1.0807513
2.2318771 5.2003393 -1.1860509
1.9315852 5.1058626 -1.2396568
2.0245867 5.296598 -0.25312588
2.0241926 5.2952895 -0.35348403
1.9839169 5.1899285 -0.44518632
1.9759352 5.1687779 -0.54130542
2.4812815 5.0986695 -0.68829995
2.2741728 5.246007 -0.99697834
1.9530733 5.1060352 -1.2414284
2.0166178 5.2183218 -0.24973659
2.0349522 5.265492 -0.35199046
2.0036442 5.1844816 -0.44534606
1.9977368 5.1689277 -0.54208428
2.4955757 5.0806303 -0.68709499
1.9745885 5.1061187 -1.2431999
2.0337276 5.2138224 -0.24982579
2.0536604 5.2646523 -0.35236385
2.0264423 5.1948771 -0.44678369
2.0139656 5.1626263 -0.54208428
2.5009534 5.0514135 -0.68420297
1.9955842 5.112608 -1.2463002
2.0425632 5.1803107 -0.2485771
2.0736747 5.2589464 -0.35248831
2.0483942 5.1948338 -0.44742265
2.0328741 5.15521 -0.54208428
2.0751541 5.2594695 -1.2839462
2.0607965 5.1709337 -0.2484879
2.0995872 5.2679996 -0.35360852
2.0740633 5.2039585 -0.44886026
2.0561769 5.1588187 -0.54325253
2.1023641 5.2717562 -1.2888179
2.0777769 5.1662874 -0.2485771
2.1064436 5.2373023 -0.35199046
2.0956092 5.2103643 -0.44997844
2.0798016 5.1708007 -0.54519969
2.1203716 5.268744 -1.2897037
2.1004598 5.1678925 -0.24902306
2.1323898 5.2461891 -0.35311064
2.1064346 5.182333 -0.44822133
2.1054854 5.179739 -0.54695213
2.1345248 5.2482905 -1.2866035
2.1326056 5.2000885 -0.2508961
2.1624947 5.2727075 -0.35535103
2.1476688 5.2365584 -0.45349264
2.1345885 5.2044063 -0.55026227
2.1510022 5.241559 -1.2866035
2.1508856 5.1903915 -0.2508069
2.1894476 5.2831864 -0.3565957
2.1630313 5.2194433 -0.45269394
2.1513631 5.1910315 -0.54967809
2.1709461 5.2354417 -1.2870463
2.2334673 5.3340454 -0.36057863
2.1967766 5.2464194 -0.45572895
2.6031768 4.4624887 -0.47434974
2.1796005 5.2051435 -0.55201471
2.1893668 5.2256503 -1.2866035
1.9566524 5.2534208 -0.15081191
2.2561135 5.3331771 -0.36107647
2.6182811 4.4508195 -0.38274238
2.2214282 5.2511854 -0.4568471
2.6205251 4.4546342 -0.4745326
2.2040925 5.2099524 -0.55337769
2.4348111 5.1170936 -0.88811111
2.2123063 5.2265716 -1.2888179
1.9682209 5.2341485 -0.15043542
2.5386524 4.2844315 -0.28113219
2.2744238 5.3297348 -0.36132541
2.6292007 4.4374242 -0.38229889
2.2418265 5.2533488 -0.4576458
2.644659 4.4635139 -0.47636124
2.2274809 5.2194791 -0.55513012
2.2317786 5.2267699 -1.2905895
1.9802864 5.2082119 -0.14989758
2.50825 4.1979609 -0.27605963
2.5758839 4.3113279 -0.37224618
2.2768502 5.2817116 -0.46084052
2.6528289 4.4401131 -0.47489831
2.2993925 5.3337479 -0.56817597
2.2486033 5.2131824 -1.2892609
1.9937731 5.194499 -0.14968243
2.5379744 4.2175603 -0.19064474
2.5142188 4.1780839 -0.27527058
2.5328555 4.2092204 -0.3641153
2.3101258 5.3129263 -0.46419501
2.558944 4.2525759 -0.45569757
2.3216937 5.3392754 -0.56953895
2.0402105 5.2577996 -0.051776908
2.0149682 5.1927481 -0.1498438
2.5316446 4.1723499 -0.18901928
2.5315869 4.172255 -0.27549601
2.5389545 4.1845622 -0.36278477
2.5083942 4.1341944 -0.44399425
2.3452497 5.3398428 -0.57051253
2.0558162 5.2409778 -0.051685106
2.0266862 5.1667161 -0.14930594
2.5312755 4.1374712 -0.18785822
2.5322728 4.1391015 -0.27391788
2.5469887 4.1633186 -0.36174995
2.5141759 4.1096826 -0.44234848
2.0663817 5.2196174 -0.051538222
2.0465875 5.1696181 -0.14957488
2.5369229 4.117588 -0.1873164
2.5515482 4.141326 -0.27459422
2.5663328 4.1654849 -0.36263695
2.5114043 4.0763292 -0.43960553
2.1033299 5.2565718 -0.051978875
2.0640359 5.1583695 -0.1494673
2.5446157 4.0963788 -0.18677457
2.5530124 4.1098957 -0.27312884
2.5805304 4.1543565 -0.3624891
2.4969032 4.0197263 -0.43448532
2.0934217 5.1767182 -0.15022029
2.5638556 4.0938001 -0.18708418
2.5818369 4.1225114 -0.27459422
2.5936222 4.14149 -0.36219344
2.507391 4.0037961 -0.43375388
2.1187387 5.1923294 -0.1508657
2.5745721 4.0823445 -0.18692937
2.574537 4.0822887 -0.27245247
2.5938532 4.1130767 -0.36041945
2.5135827 3.9857914 -0.43265668
2.597023 4.0846863 -0.18747121
2.5905535 4.0745106 -0.27256522
2.6003501 4.0900764 -0.35923678
2.5217631 3.9664676 -0.4315595
2.6206043 4.0886006 -0.18809043
2.6087024 4.0700316 -0.27290338
2.6271625 4.09899 -0.36086294
2.536284 3.9571984 -0.4315595
2.6247663 4.0669141 -0.18747121
2.6268899 4.0702047 -0.273467
2.6346192 4.0823369 -0.36012378
2.6252944 4.487258 -0.44706658
2.5400639 3.9358237 -0.4300966
2.4568176 4.1992908 -0.67657119
2.6505532 4.0740185 -0.18824524
2.6657474 4.0973721 -0.27594692
2.6637037 4.0943875 -0.36204562
2.6417234 4.4776058 -0.44706658
2.5837965 3.9715619 -0.43503392
2.4616528 4.1723938 -0.58804339
2.4570932 4.1646657 -0.67243904
2.6819074 4.0893435 -0.18940629
2.6885366 4.0996079 -0.36337611
2.6407969 4.4387808 -0.44415352
2.5950592 3.9570689 -0.43448532
2.6638701 4.4775634 -0.54024601
2.4515505 4.1206861 -0.58201838
2.4672768 4.14712 -0.67106164
2.7310762 4.1360807 -0.36736766
2.6670189 4.450974 -0.44620979
2.6206467 3.9688406 -0.43667969
2.4938738 4.1620131 -0.50311571
2.4675453 4.1180735 -0.58274138
2.4640024 4.1121607 -0.66665399
2.675071 4.4275246 -0.44483894
2.66166 3.9989998 -0.44106844
2.4885366 4.1187906 -0.49899009
2.461061 4.0733156 -0.57768035
2.4770088 4.0997109 -0.66610307
2.5554726 4.1947637 -0.42239138
2.7384355 4.0818362 -0.45130885
2.4901614 4.0875564 -0.49630848
2.4780397 4.0676589 -0.57816231
2.4920182 4.0906048 -0.66610307
2.5227883 4.1119823 -0.41485173
2.4936275 4.0644522 -0.49445194
2.4638114 4.0158539 -0.57189631
2.4996774 4.0743132 -0.66472566
2.5493734 4.1213493 -0.41673663
2.4949031 4.0332918 -0.49177033
2.4826915 4.0135508 -0.5728603
2.4624887 3.9808903 -0.6509518
2.5623529 4.1085963 -0.41639394
2.506511 4.0190568 -0.49115148
2.4858282 3.985893 -0.57020926
2.4718213 3.9634337 -0.64957446
2.5445144 4.0515895 -0.41142461
2.4905584 3.9656765 -0.48558193
2.4888346 3.9629316 -0.56804025
2.4758322 3.9422283 -0.64737064
2.0062931 3.9174371 -1.2301927
2.5444238 4.0186663 -0.40902564
2.5082693 3.9615641 -0.48620078
2.4948461 3.9403634 -0.56611228
2.4945035 3.9398222 -0.64847255
2.0330181 3.9340138 -1.23773
2.5634243 4.0160322 -0.40971106
2.5238426 3.954021 -0.48640704
2.5167489 3.9429078 -0.56779927
2.5067952 3.9273133 -0.64792156
2.435293 4.2117682 -0.93406177
2.0367365 3.9060409 -1.2312695
2.5663319 3.992873 -0.40816885
2.5265718 3.9310112 -0.48455054
2.5194623 3.91995 -0.56563026
2.5169787 3.9160857 -0.64737064
2.4561303 4.2173457 -0.76486558
2.4412985 4.19171 -0.84581691
2.4139152 4.1446929 -0.92086345
2.0445178 3.8910973 -1.2285776
2.5917845 4.0001631 -0.40988243
2.5452895 3.9284027 -0.48537564
2.5446086 3.9273517 -0.56804025
2.5356236 3.9134843 -0.64847255
2.4415522 4.1572018 -0.75557572
2.4396822 4.153852 -0.83997661
2.4072063 4.0985579 -0.91256738
2.4774358 4.2179637 -1.0252304
2.0695918 3.9039998 -1.2350382
2.6038632 4.3969355 -0.34890944
2.6107869 3.9973102 -0.41056785
2.5618463 3.9223783 -0.4857882
2.5459576 3.8980515 -0.56514823
2.5434508 3.8942132 -0.64681965
2.4547589 4.144825 -0.75495636
2.441838 4.1228442 -0.83551049
2.4142048 4.0761881 -0.90955067
2.4609573 4.1549602 -1.0121022
2.0793447 3.8878956 -1.2323462
2.5088835 4.2063541 -0.24759489
2.5144289 4.215652 -0.33514926
2.6288064 3.9974129 -0.41142461
2.5818076 3.9259455 -0.48723218
2.5669184 3.9033048 -0.56707627
2.5807066 3.9242711 -0.65315562
2.4566338 4.1184268 -0.75155008
2.437619 4.0863872 -0.82967013
2.4159303 4.0500283 -0.9054026
2.431879 4.0766034 -0.99487144
2.5181067 4.1868601 -0.24698903
2.5185509 4.1875987 -0.33365062
2.6643586 4.0193076 -0.41468036
2.6027744 3.9264052 -0.48846984
2.6283779 3.9650292 -0.57743931
2.6213405 3.9544127 -0.65976709
2.4676385 4.102622 -0.75031143
2.4495332 4.07236 -0.82863951
2.4327829 4.0445127 -0.90615678
2.4387324 4.0542436 -0.99158943
2.5363417 4.182395 -0.16055405
2.5220423 4.1588154 -0.24587828
2.5359516 4.1817517 -0.3339231
2.6945708 4.0327106 -0.41707936
2.6160429 3.915185 -0.48826358
2.6274502 3.9322574 -0.57406533
2.6578274 3.9777203 -0.66527665
2.4754863 4.0817242 -0.74814379
2.4583123 4.053247 -0.8265782
2.4435163 4.0288515 -0.90464842
2.4505301 4.040257 -0.99035865
2.5505104 4.1761122 -0.16061966
2.5371773 4.1542811 -0.24608023
2.5459564 4.1686554 -0.33351439
2.7450433 4.0804391 -0.42290545
2.6572003 3.9498625 -0.49362683
2.6641717 3.9602253 -0.57936734
2.6979537 4.0104413 -0.67216355
2.4800577 4.0604372 -0.7456665
2.4628177 4.0320525 -0.82382983
2.4541135 4.0178027 -0.90389425
2.4632108 4.0325384 -0.99035865
2.5312114 4.1105666 -0.15845445
2.5356288 4.1177406 -0.24446461
2.5559869 4.1508007 -0.33283317
2.723016 4.0158362 -0.50311571
2.714325 4.0030189 -0.58707941
2.4959595 4.0530024 -0.74597615
2.4786124 4.0246763 -0.82417339
2.4647031 4.0020909 -0.90238589
2.4646299 4.0018158 -0.98502529
2.5535939 4.1178837 -0.15904495
2.5632901 4.1335196 -0.24587828
2.5795302 4.159708 -0.33419558
2.4993076 4.0300283 -0.74318922
2.4850135 4.0068235 -0.82211208
2.4731231 3.9876516 -0.90087748
2.4771898 3.9940529 -0.98502529
2.5548935 4.0864625 -0.15819199
2.5540683 4.0851426 -0.24355581
2.5852389 4.1349988 -0.33296943
2.5213943 4.0325685 -0.74535686
2.4986379 3.9960179 -0.82176852
2.4981351 3.995214 -0.90464842
2.4295425 3.8853645 -0.96040994
2.5783813 4.0905991 -0.15871689
2.5818052 4.0960317 -0.24476755
2.6078248 4.1373115 -0.3339231
2.52246 4.0015707 -0.74133122
2.4785943 3.9318309 -0.81043142
2.4394422 3.8697233 -0.87825185
2.4197571 3.8383484 -0.95097405
2.5890684 4.0743732 -0.15845445
2.5968006 4.0865412 -0.24476755
2.619761 4.1226735 -0.33351439
2.4724629 3.8905733 -0.72244185
2.453887 3.8611937 -0.79772013
2.4451809 3.8474948 -0.87523508
2.441159 3.8410182 -0.9538458
2.6104746 4.079689 -0.15897934
2.6053197 4.0716329 -0.24436364
2.6251714 4.1026578 -0.33256072
2.4825432 3.879458 -0.7218225
2.467067 3.855125 -0.79806364
2.4667845 3.8546834 -0.87862897
2.4574344 3.8399251 -0.95548683
2.6438301 4.09865 -0.16009475
2.6213081 4.063735 -0.24446461
2.6445174 4.0997157 -0.33310565
2.6169496 4.4765787 -0.41547528
2.6290162 4.4970403 -0.50956702
2.4956744 3.8686726 -0.72151285
2.4726355 3.8328118 -0.79531527
2.4670541 3.8241601 -0.87372673
2.5638146 3.9739957 -0.99117917
2.6654036 4.103735 -0.16061966
2.6460299 4.0739064 -0.24557535
2.6639051 4.1014276 -0.3339231
2.6158271 4.4425664 -0.41307923
2.6491909 4.4990501 -0.51073527
2.511045 3.8657839 -0.72244185
2.5007637 3.8498089 -0.8004685
2.5614414 3.9432194 -0.90276295
2.583751 3.9774122 -0.99405092
2.6686027 4.0758786 -0.24628219
2.6832917 4.0983138 -0.33446807
2.6351459 4.4380918 -0.41355845
2.6534679 4.4687719 -0.50839871
2.5327735 3.8681259 -0.72460949
2.5537133 3.8999574 -0.81283629
2.5823326 3.9436641 -0.90502554
2.5993841 3.9695532 -0.99446118
2.5268242 4.2205114 -0.21958981
2.5255368 4.218194 -0.30656028
2.6565151 4.4369559 -0.41435713
2.5992742 4.3411794 -0.49496344
2.6144168 3.9610591 -0.74380857
2.625515 3.9777229 -0.83104432
2.6075895 3.9505651 -0.90879649
2.6182292 3.9665339 -0.99610221
2.4754961 4.1326509 -1.0939451
2.5153098 4.1714873 -0.21744922
2.5181608 4.1760511 -0.30407095
2.6694117 4.4268813 -0.41419739
2.5101104 4.1625361 -0.475492
2.6509073 3.9890301 -0.75062114
2.6499944 3.9875054 -0.83482337
2.6362946 3.9668911 -0.91445285
2.6415122 3.9745917 -1.0002048
2.4501827 4.0613942 -1.0771152
2.4487805 4.0587497 -1.1594934
2.5388858 4.1758981 -0.21816276
2.5417461 4.180438 -0.30506667
2.7011547 4.4426193 -0.41659343
2.4922578 4.0988832 -0.46926117
2.6973994 4.0268941 -0.75960129
2.6689775 3.9843137 -0.83619756
2.6573751 3.9669931 -0.91671544
2.6985502 4.0283084 -1.0162048
2.4508617 4.0290585 -1.0709147
2.4505141 4.0281706 -1.1533159
2.4576447 4.0394154 -1.2392136
2.5353782 4.1359034 -0.21655731
2.5487049 4.1574798 -0.30407095
2.5392451 4.1420493 -0.38927847
2.4895782 4.0608726 -0.46595103
2.7243567 4.0349221 -0.8489089
2.7268517 4.0386176 -0.93557012
2.4686716 4.0250363 -1.0722433
2.4632301 4.0158501 -1.1523654
2.4693985 4.0254331 -1.2376924
2.541012 4.1160169 -0.21593297
2.5648992 4.1545477 -0.30444434
2.5375834 4.1103024 -0.38704214
2.4929123 4.0377879 -0.46419859
2.4690056 3.9973488 -1.0669286
2.4574568 3.9783409 -1.1438118
2.4718645 4.0011964 -1.2326219
2.5581925 4.1100683 -0.21611135
2.5758898 4.1383405 -0.3039465
2.5747547 4.136517 -0.39039662
2.4971759 4.0117249 -0.46225145
2.4784851 3.9799948 -1.0647142
2.429914 3.9016953 -1.1243285
2.4773073 3.9773302 -1.2280586
2.5689914 4.093895 -0.21575458
2.5910404 4.1288714 -0.3039465
2.5835404 4.11692 -0.38943821
2.5002241 3.9839997 -0.46010959
2.4225366 3.8585627 -1.0345975
2.4886193 3.9635105 -1.1447623
2.4990704 3.9796925 -1.2316079
2.5903785 4.0993166 -0.21646811
2.6039989 4.1207113 -0.3039465
2.5868764 4.0936155 -0.38800058
2.5159178 3.9811733 -0.46069375
2.4304779 3.8443391 -1.0328259
2.4989824 3.9523888 -1.1438118
2.5125945 3.9734571 -1.2321149
2.5839159 4.0560923 -0.21468428
2.618012 4.1094561 -0.30382204
2.5782971 4.0471163 -0.38448635
2.5219364 3.9584954 -0.45913601
2.4487448 3.8419838 -1.0345975
2.5270267 3.9644997 -1.1499895
2.5437808 3.9903231 -1.2402276
2.6203582 4.0802178 -0.21646811
2.634135 4.1015124 -0.3039465
2.5909586 4.0342841 -0.3841669
2.540731 3.9559247 -0.45991489
2.46281 3.832983 -1.0345975
2.5404902 3.9535768 -1.1495142
2.5447915 3.9598148 -1.233636
2.6309938 4.0686102 -0.21628973
2.6470072 4.0932169 -0.3039465
2.6144457 4.0428653 -0.38576424
2.5639555 3.9646375 -0.46186203
2.4716611 3.8203144 -1.0332688
2.5602856 3.9569936 -1.1528406
2.571934 3.97454 -1.2407347
2.6513438 4.0673089 -0.21673569
2.6270685 4.0299153 -0.38544479
2.5621638 3.9302015 -0.45894131
2.5293293 3.8782079 -1.0514274
2.5832622 3.9606006 -1.1566423
2.5875411 3.966707 -1.2412417
2.6837888 4.08428 -0.21816276
2.6670024 4.0585794 -0.38911873
2.5885761 3.9390826 -0.46108317
2.5981686 3.9520261 -1.0740149
2.6137702 3.9754555 -1.1637703
2.6031253 3.9588132 -1.2417487
2.68854 4.0634818 -0.39039662
2.6097252 3.944211 -0.46264088
2.6310253 3.9747446 -1.0824299
2.6423323 3.9915235 -1.1708983
2.7377057 4.1050172 -0.39534846
2.641835 3.9611151 -0.4657563
2.6596479 3.9861655 -1.0881875
2.6688056 3.999588 -1.1761255
2.6785457 3.9844441 -0.4696506
2.5469501 4.1370959 -0.13069649
2.5704694 4.1460662 -0.13123433
2.5750513 4.1196637 -0.13069649
2.5943708 4.1217055 -0.13101919
2.6233859 4.1341143 -0.1317184
2.6460624 4.13626 -0.13209489
2.6655397 4.1380115 -0.13241759
