# .PCD v0.7 - Point Cloud Data file format
VERSION 0.7
FIELDS x y z
SIZE 4 4 4
TYPE F F F
COUNT 1 1 1
WIDTH 255
HEIGHT 1
VIEWPOINT 0 0 0 1 0 0 0
POINTS 255
DATA ascii
1.7121657 12.973697 -0.5068379
1.7088969 12.948929 -0.73732382
1.69836 12.870818 -0.9622519
1.7037017 12.9113 -1.1957489
1.7583615 12.957433 -0.50645089
1.7574197 12.950493 -0.73777473
1.7600037 12.971233 -0.97023493
1.7453891 12.863524 -1.1919088
1.805289 12.946942 -0.5062961
1.805701 12.949898 -0.73811287
1.8031272 12.933089 -0.96786958
1.7897745 12.837316 -1.1900802
1.8507516 12.974841 -0.50761193
1.8441195 12.928347 -0.73721111
1.8409326 12.907615 -0.96639127
1.8329073 12.851346 -1.1919088
1.8948208 12.944242 -0.50668311
1.888889 12.903719 -0.73619658
1.8864958 12.88894 -0.96550423
1.8872083 12.893807 -1.1964804
1.9481853 12.976737 -0.50823116
1.9373566 12.904608 -0.73664749
1.9384608 12.913498 -0.96786958
1.9465755 12.967556 -1.2039778
1.9874287 12.960675 -0.50784415
1.9781907 12.900432 -0.7367602
1.9799271 12.913259 -0.9683131
1.9797587 12.912161 -1.1994063
2.0405014 12.988841 -0.50923741
2.0291786 12.916766 -0.73811287
2.0312669 12.93153 -0.97023493
2.0298524 12.922525 -1.2010521
2.0903161 12.995087 -0.50977927
2.0901434 12.994016 -0.74295998
2.089735 12.992921 -0.97540915
2.0847924 12.962192 -1.2054408
2.1369553 13.023954 -0.51117253
2.1432409 13.062263 -0.74724346
2.2005551 13.11064 -0.51488787
2.1818473 12.99918 -0.74408722
2.2237353 12.957639 -0.74217093
1.7148494 12.81807 -1.1120974
1.7620898 12.813673 -1.1122687
1.8261427 12.977249 -0.27542815
1.8120549 12.877136 -1.1182661
1.869692 12.942763 -0.27483982
1.8549663 12.840826 -1.1156958
1.9056699 12.905175 -0.27416742
1.9034482 12.89013 -1.1204938
1.9616381 12.955438 -0.27538612
2.3512685 11.965724 -0.90385747
1.9509785 12.885037 -1.1206652
2.3423834 11.692744 -0.4618665
2.3914027 11.93744 -0.68727463
2.3810065 11.886621 -0.89853543
2.0003302 12.891583 -1.1218647
2.3865342 11.914217 -1.1156545
2.3888214 11.701704 -0.46256313
2.4207611 11.858162 -0.68321657
2.4225626 11.868044 -0.89779627
2.0531962 12.919589 -1.124949
2.4202278 11.856606 -1.1110829
2.4284127 11.707839 -0.46310496
2.4531362 11.827036 -0.6818639
2.4513292 11.819363 -0.89469177
2.0947311 12.918976 -1.1254631
2.4481621 11.80409 -1.106877
2.4754381 11.718413 -0.46387899
2.4952297 11.812104 -0.68152577
2.4921598 11.79859 -0.89380473
2.4852357 11.765809 -1.104134
2.5193667 11.743797 -0.46519485
2.5344205 11.81397 -0.68208933
2.5292137 11.790702 -0.89380473
2.5288703 11.789101 -1.1070598
2.5653775 11.748152 -0.46573669
1.6620783 12.985345 -0.66180134
2.5777037 11.804601 -0.68208933
1.6509618 12.898495 -0.88787305
2.5817723 11.824223 -0.89705706
2.5724874 11.781698 -1.1072427
1.7088342 12.97289 -0.4295001
2.6196907 11.789394 -0.46774918
1.7052262 12.945499 -0.66008472
2.6257172 11.816516 -0.68332934
1.6961414 12.876531 -0.88678312
2.63288 11.849727 -0.89971811
2.6307716 11.840238 -1.1136429
1.7511848 12.979343 -0.42989379
1.7466885 12.946017 -0.66038769
2.6935754 11.944562 -0.69121993
1.7496588 12.968033 -0.89345884
1.8025296 13.000134 -0.19815698
1.8028628 13.002538 -0.43087798
1.7965952 12.957335 -0.66129649
1.7922446 12.925957 -0.89100659
1.8428357 12.941966 -0.19737196
1.8488166 12.983969 -0.43048429
1.8367531 12.899248 -0.65867108
1.8345454 12.883743 -0.88855428
1.8817562 12.924239 -0.19719081
2.2877948 11.993044 -0.25660121
1.8910378 12.987987 -0.43081236
1.880146 12.91318 -0.65968084
1.8781741 12.899636 -0.89005286
1.9332485 12.944944 -0.19761351
2.3325 11.988503 -0.25668526
1.9398094 12.988876 -0.43107483
1.9265774 12.900276 -0.65937793
1.9236727 12.880825 -0.88923544
1.9837074 12.95754 -0.19791543
1.986798 12.977728 -0.43094358
1.9801942 12.934591 -0.66149843
1.9772114 12.915108 -0.89209646
2.370923 11.95214 -1.047839
2.4006107 11.905705 -0.25525641
2.0343504 13.014871 -0.43238705
2.0254469 12.957909 -0.66301304
2.022398 12.938404 -0.89414006
2.413974 11.971979 -1.050238
2.4426217 11.888992 -0.25508833
2.0845661 13.023117 -0.43291196
2.0865016 13.035209 -0.66735506
2.0830517 13.013656 -0.89986211
2.4397914 11.875216 -1.042527
2.4461453 11.906143 -1.2603678
2.4886379 11.891703 -0.25534046
2.1413331 13.070623 -0.43474913
2.1458898 13.098436 -0.67099023
2.4710548 11.807683 -1.0373863
2.4640951 11.774427 -1.2473722
2.522243 11.866222 -0.25496224
2.5052376 11.786218 -1.0361868
2.5006599 11.764682 -1.2471658
2.2080901 12.926012 -0.66291207
2.547998 11.775009 -1.0360155
2.5408177 11.741827 -1.2457218
1.6830515 12.978292 -0.58420527
2.2430835 12.846995 -0.6592769
1.6680325 12.860718 -1.0390875
2.5945668 11.781159 -1.0373863
2.5966723 11.790719 -1.2519102
1.7232893 12.968978 -0.58402687
1.7137361 12.89536 -0.81114632
1.700811 12.798103 -1.0344552
2.63939 11.807954 -1.0404707
1.7083451 12.853077 -1.2683681
1.7732453 12.980392 -0.58482957
1.7736884 12.981946 -0.81699622
1.7579622 12.866843 -1.0405252
2.6936958 11.846777 -1.0447546
1.756251 12.852646 -1.2689523
1.8101424 12.947054 -0.58358091
1.8083823 12.932818 -0.81425798
1.8030692 12.894822 -1.0432407
1.7963443 12.845094 -1.2687576
1.8561641 12.930444 -0.58313495
1.8520836 12.900417 -0.81263989
1.8517356 12.897994 -1.0440394
1.855011 12.919205 -1.2767408
1.9029617 12.9196 -0.58295655
1.8999354 12.897492 -0.81288886
1.8998682 12.897037 -1.0445186
1.9264302 13.075767 -1.2929021
2.2909775 11.672898 -0.39046061
1.9514953 12.920442 -0.58331335
1.9442128 12.870705 -0.8116442
2.3387656 11.916387 -0.82915384
1.9459344 12.882102 -1.0438796
1.9612594 12.982018 -1.2843347
2.3311579 11.683287 -0.39105111
1.9975591 12.949791 -0.5849188
2.3872838 11.964578 -0.61676574
1.9925506 12.915826 -0.81488031
2.3718956 11.887455 -0.8276552
1.9939941 12.925182 -1.0478731
2.0020339 12.975793 -1.2843347
2.3735652 11.672705 -0.39098552
2.0503104 12.975932 -0.58643502
2.4088309 11.846134 -0.61111104
2.0445497 12.93801 -0.81674731
2.4098828 11.851307 -0.82574785
2.0441546 12.93551 -1.0493107
2.0492685 12.966402 -1.28414
2.467088 11.940403 -0.18408702
2.4179091 11.702385 -0.39223215
2.0942457 12.989152 -0.58732694
2.4448221 11.83264 -0.61080813
2.0963075 13.000497 -0.82110363
2.4442766 11.83 -0.82479417
2.0930343 12.980197 -1.0534638
2.0972822 13.005097 -1.2886184
2.506717 11.911712 -0.1837851
2.4772501 11.771687 -0.39485666
2.1574516 13.076015 -0.59160817
2.4844725 11.806007 -0.60989934
2.4843321 11.805341 -0.82370424
2.5279174 11.79771 -0.3960377
2.2050307 13.066049 -0.59151894
2.5273085 11.794869 -0.60979831
2.5305107 11.809813 -0.82465792
2.5870655 11.891278 -0.39944953
2.2030566 12.808982 -0.58019161
2.567323 11.800534 -0.61050516
2.5760834 11.8408 -0.82738268
2.250335 12.802789 -0.58028084
2.6170337 11.820298 -0.61201984
2.6319733 11.887775 -0.83133364
2.3039532 12.83182 -0.58197546
2.6989653 11.982106 -0.62090576
1.8089825 13.056725 -0.12101475
1.8147151 13.098101 -0.3557311
1.8342741 12.94009 -0.11998656
1.8510848 13.058683 -0.35481676
1.8802499 12.923385 -0.11989476
1.8914509 13.000372 -0.35341835
1.9246646 12.94313 -0.12013344
1.9316952 12.990411 -0.35331079
1.9898403 13.052419 -0.35519326
2.3572643 11.937859 -0.75874603
2.3527524 11.915009 -0.97311628
2.4259279 12.054064 -0.54888535
2.3907623 11.87826 -0.75550991
2.38972 11.873081 -0.97040075
2.4262614 12.053546 -1.2027495
2.4249504 11.856507 -0.54023379
2.420867 11.835489 -0.75326949
2.4142241 11.803014 -0.96528918
2.4130552 11.796249 -1.177826
2.4671679 11.841671 -0.53996617
2.4658585 11.834353 -0.75376737
2.4570615 11.792134 -0.96512944
2.4534318 11.773685 -1.176463
2.5035033 11.799323 -0.53844994
2.5034163 11.797899 -0.75202483
2.4973688 11.769398 -0.96401131
2.4945021 11.754878 -1.1754894
2.5380344 11.77968 -0.53791481
2.5434115 11.803636 -0.75289613
2.5360107 11.76929 -0.96465021
2.5364506 11.770333 -1.177826
2.5859001 11.791767 -0.53889591
2.593071 11.823481 -0.75476313
2.5898073 11.808599 -0.96864367
2.5957789 11.834841 -1.1852251
2.6330178 11.79976 -0.5396986
2.6455188 11.85481 -0.75737691
2.6391497 11.826268 -0.97087997
2.6868429 11.865479 -0.5430879
2.2978635 11.747034 -0.32200816
2.3463769 11.765983 -0.32276115
2.4095416 11.887876 -0.32631093
2.4583528 11.904418 -0.32701015
2.4994993 11.883589 -0.32668743
2.5497675 11.936288 -0.32835475
