# .PCD v0.7 - Point Cloud Data file format
VERSION 0.7
FIELDS x y z normal_x normal_y normal_z curvature
SIZE 4 4 4 4 4 4 4
TYPE F F F F F F F
COUNT 1 1 1 1 1 1 1
WIDTH 846
HEIGHT 1
VIEWPOINT 0 0 0 1 0 0 0
POINTS 846
DATA ascii
-0.21114707 0.083305307 -0.21411811 0 0 0 3.6274931e-38
-0.26680899 0.082022712 -0.24389341 0 0 0 3.6274931e-38
-0.27729213 0.081781156 -0.27795616 0 0 0 3.6274931e-38
-0.049268723 0.18489288 -0.42837876 0 0 0 3.6274931e-38
-0.043141127 0.18526427 -0.46892291 0 0 0 3.6274931e-38
-0.14015341 0.077111088 0.031016063 0 0 0 3.6274931e-38
-0.11594439 0.077580154 -0.0070874202 0 0 0 3.6274931e-38
-0.13840055 0.077145055 -0.044924121 0 0 0 3.6274931e-38
-0.18971276 -0.015166383 -0.080809221 0 0 0 3.6274931e-38
-0.16551614 -0.015756886 -0.11914864 0 0 0 3.6274931e-38
-0.13005233 -0.016584896 -0.15906945 0 0 0 3.6274931e-38
-0.16172695 0.076693088 -0.18180822 0 0 0 3.6274931e-38
-0.105304 -0.017188437 -0.19932197 0 0 0 3.6274931e-38
-0.23485398 0.075276211 -0.21164276 0 0 0 3.6274931e-38
-0.27062297 0.074583158 -0.24341141 0 0 0 3.6274931e-38
-0.29100084 0.074188322 -0.27602783 0 0 0 3.6274931e-38
-0.021610498 0.17848931 -0.35394385 0 0 0 3.6274931e-38
-0.039804697 0.1772978 -0.3906149 0 0 0 3.6274931e-38
-0.019333839 0.17859396 -0.43403515 0 0 0 3.6274931e-38
-0.054329395 0.17633921 -0.46646139 0 0 0 3.6274931e-38
-0.15801215 0.06900157 0.030754693 0 0 0 3.6274931e-38
-0.17179847 0.068784997 -0.0069036726 0 0 0 3.6274931e-38
-0.13226533 0.069406033 -0.045050196 0 0 0 3.6274931e-38
-0.20789289 -0.022306208 -0.080112591 0 0 0 3.6274931e-38
-0.18168736 -0.023041856 -0.11824686 0 0 0 3.6274931e-38
-0.15817094 -0.023665026 -0.15699977 0 0 0 3.6274931e-38
-0.16756821 0.068851456 -0.18129414 0 0 0 3.6274931e-38
-0.22079921 0.068015233 -0.21308672 0 0 0 3.6274931e-38
-0.29034591 0.066922702 -0.2410014 0 0 0 3.6274931e-38
-0.29087317 0.066914417 -0.27602783 0 0 0 3.6274931e-38
-0.096052647 0.16575608 -0.34217671 0 0 0 3.6274931e-38
-0.14354014 0.16288581 -0.37240681 0 0 0 3.6274931e-38
-0.1521492 0.16237237 -0.40839276 0 0 0 3.6274931e-38
-0.15934491 0.16190617 -0.44430754 0 0 0 3.6274931e-38
-0.17190194 0.061071686 0.030551404 0 0 0 3.6274931e-38
-0.17369127 0.061050139 -0.00689711 0 0 0 3.6274931e-38
-0.13415575 0.06152628 -0.045008171 0 0 0 3.6274931e-38
-0.19813204 -0.030201092 -0.080499612 0 0 0 3.6274931e-38
-0.17393351 -0.030969165 -0.11869775 0 0 0 3.6274931e-38
-0.1464417 -0.031804577 -0.15788677 0 0 0 3.6274931e-38
-0.15949106 0.061221156 -0.18197957 0 0 0 3.6274931e-38
-0.22467303 0.060436144 -0.21267416 0 0 0 3.6274931e-38
-0.2743628 0.059837714 -0.2429294 0 0 0 3.6274931e-38
-0.2927531 0.05961623 -0.27575234 0 0 0 3.6274931e-38
-0.16463852 0.15390182 -0.33133852 0 0 0 3.6274931e-38
-0.17062902 0.15352963 -0.36759713 0 0 0 3.6274931e-38
-0.17523217 0.15327203 -0.40386763 0 0 0 3.6274931e-38
-0.17453218 0.15327443 -0.4410255 0 0 0 3.6274931e-38
-0.18383098 0.054356039 0.030377155 0 0 0 3.6274931e-38
-0.19362116 0.054268889 -0.0068314858 0 0 0 3.6274931e-38
-0.13008618 0.05483444 -0.045092218 0 0 0 3.6274931e-38
-0.19834948 -0.036727086 -0.080499612 0 0 0 3.6274931e-38
-0.18213582 -0.037292704 -0.11824686 0 0 0 3.6274931e-38
-0.15463781 -0.038214937 -0.15729544 0 0 0 3.6274931e-38
-0.17336941 0.05444916 -0.18078008 0 0 0 3.6274931e-38
-0.25046587 0.05376289 -0.20999253 0 0 0 3.6274931e-38
-0.30407703 0.053285673 -0.23931438 0 0 0 3.6274931e-38
-0.29863036 0.053334154 -0.27492592 0 0 0 3.6274931e-38
-0.20176721 0.14528921 -0.32545495 0 0 0 3.6274931e-38
-0.2174902 0.14442258 -0.35935196 0 0 0 3.6274931e-38
-0.21606255 0.14449796 -0.39594868 0 0 0 3.6274931e-38
-0.21913242 0.14429986 -0.4315896 0 0 0 3.6274931e-38
-0.1917758 0.046647578 0.030260991 0 0 0 3.6274931e-38
-0.17756748 0.046721973 -0.0068839849 0 0 0 3.6274931e-38
-0.15402508 0.046845242 -0.044587925 0 0 0 3.6274931e-38
-0.17666173 -0.045186803 -0.081351049 0 0 0 3.6274931e-38
-0.18840361 -0.044734083 -0.11790869 0 0 0 3.6274931e-38
-0.16488838 -0.045603849 -0.15655626 0 0 0 3.6274931e-38
-0.141433 0.046911176 -0.18352176 0 0 0 3.6274931e-38
-0.23052049 0.046444707 -0.21205533 0 0 0 3.6274931e-38
-0.29012823 0.046132594 -0.2410014 0 0 0 3.6274931e-38
-0.30650282 0.046046857 -0.27382401 0 0 0 3.6274931e-38
-0.22900867 0.13632971 -0.32111967 0 0 0 3.6274931e-38
-0.26039934 0.1347515 -0.35179389 0 0 0 3.6274931e-38
-0.22744846 0.13637057 -0.39368612 0 0 0 3.6274931e-38
-0.24025464 0.13570571 -0.42707679 0 0 0 3.6274931e-38
-0.17175388 0.040143121 0.030551404 0 0 0 3.6274931e-38
-0.20354319 0.040076539 -0.0067986734 0 0 0 3.6274931e-38
-0.15400052 0.040180303 -0.044587925 0 0 0 3.6274931e-38
-0.17692637 -0.051780172 -0.081351049 0 0 0 3.6274931e-38
-0.17071104 -0.05203937 -0.11892319 0 0 0 3.6274931e-38
-0.15917587 -0.05248341 -0.15699977 0 0 0 3.6274931e-38
-0.15336442 0.040181637 -0.18249364 0 0 0 3.6274931e-38
-0.23248625 0.040015921 -0.21184903 0 0 0 3.6274931e-38
-0.30400336 0.039866131 -0.23931438 0 0 0 3.6274931e-38
-0.30251825 0.039869241 -0.27437496 0 0 0 3.6274931e-38
-0.23857164 0.12944588 -0.31957138 0 0 0 3.6274931e-38
-0.25419378 0.12869185 -0.35282454 0 0 0 3.6274931e-38
-0.2349906 0.12957494 -0.39217773 0 0 0 3.6274931e-38
-0.24581671 0.12904158 -0.42584601 0 0 0 3.6274931e-38
-0.19174981 0.032463785 0.030260991 0 0 0 3.6274931e-38
-0.18154144 0.032447752 -0.0068708602 0 0 0 3.6274931e-38
-0.16199684 0.032417051 -0.044419829 0 0 0 3.6274931e-38
-0.17526484 -0.059561931 -0.081428453 0 0 0 3.6274931e-38
-0.18301535 -0.059210248 -0.11824686 0 0 0 3.6274931e-38
-0.13244414 0.12653302 -0.14645749 0 0 0 3.6274931e-38
-0.1634984 -0.060058892 -0.1567041 0 0 0 3.6274931e-38
-0.13941383 0.032381579 -0.18369313 0 0 0 3.6274931e-38
-0.22452688 0.032515272 -0.21267416 0 0 0 3.6274931e-38
-0.27620542 0.032596447 -0.2426884 0 0 0 3.6274931e-38
-0.29657352 0.032628439 -0.27520138 0 0 0 3.6274931e-38
-0.28364658 0.12005736 -0.31244913 0 0 0 3.6274931e-38
-0.26174068 0.12094948 -0.35145032 0 0 0 3.6274931e-38
-0.25428391 0.12126499 -0.38840678 0 0 0 3.6274931e-38
-0.2533114 0.1212708 -0.42420498 0 0 0 3.6274931e-38
-0.14066648 0.024558773 0.068844669 0 0 0 3.6274931e-38
-0.20377421 0.024889205 0.030086743 0 0 0 3.6274931e-38
-0.20156717 0.024877649 -0.006805236 0 0 0 3.6274931e-38
-0.1700213 0.024712477 -0.044251729 0 0 0 3.6274931e-38
-0.19958138 -0.066084281 -0.080499612 0 0 0 3.6274931e-38
-0.1833775 -0.066879049 -0.11824686 0 0 0 3.6274931e-38
-0.14209509 0.11829185 -0.1457763 0 0 0 3.6274931e-38
-0.16585588 -0.067701541 -0.15655626 0 0 0 3.6274931e-38
-0.12150693 0.024458453 -0.18523532 0 0 0 3.6274931e-38
-0.21460605 0.02494592 -0.21370555 0 0 0 3.6274931e-38
-0.29806983 0.025382936 -0.24003738 0 0 0 3.6274931e-38
-0.28867459 0.025333744 -0.27630329 0 0 0 3.6274931e-38
-0.26558113 0.11344317 -0.31523609 0 0 0 3.6274931e-38
-0.27522349 0.11303543 -0.34904549 0 0 0 3.6274931e-38
-0.26772285 0.11332529 -0.38576713 0 0 0 3.6274931e-38
-0.24518728 0.11416064 -0.42584601 0 0 0 3.6274931e-38
-0.16670728 0.016965497 0.068006665 0 0 0 3.6274931e-38
-0.2118268 0.017367125 0.029970579 0 0 0 3.6274931e-38
-0.18762136 0.017151663 -0.006851173 0 0 0 3.6274931e-38
-0.1620779 0.016924292 -0.044419829 0 0 0 3.6274931e-38
-0.18599844 -0.074428864 -0.081041433 0 0 0 3.6274931e-38
-0.16980934 -0.075282395 -0.11903592 0 0 0 3.6274931e-38
-0.11987138 0.11124017 -0.14727494 0 0 0 3.6274931e-38
-0.13238907 -0.077217773 -0.15906945 0 0 0 3.6274931e-38
-0.13551068 0.016687805 -0.18403584 0 0 0 3.6274931e-38
-0.22659492 0.017498581 -0.21246788 0 0 0 3.6274931e-38
-0.29017961 0.018064573 -0.2410014 0 0 0 3.6274931e-38
-0.31051552 0.018245589 -0.27327305 0 0 0 3.6274931e-38
-0.30875278 0.10455574 -0.30842352 0 0 0 3.6274931e-38
-0.30645871 0.1046016 -0.34354872 0 0 0 3.6274931e-38
-0.26156306 0.10617174 -0.3868984 0 0 0 3.6274931e-38
-0.26056385 0.10617148 -0.42256397 0 0 0 3.6274931e-38
-0.15678263 0.010220187 0.068328977 0 0 0 3.6274931e-38
-0.20989513 0.010859836 0.029999619 0 0 0 3.6274931e-38
-0.20368886 0.010785094 -0.0067986734 0 0 0 3.6274931e-38
-0.18614054 0.010573752 -0.043915536 0 0 0 3.6274931e-38
-0.17837334 -0.081438713 -0.081351049 0 0 0 3.6274931e-38
-0.18811178 -0.080894582 -0.11802141 0 0 0 3.6274931e-38
-0.10369015 0.10497626 -0.14836486 0 0 0 3.6274931e-38
-0.11565614 0.0097248871 -0.1857494 0 0 0 3.6274931e-38
-0.18091083 0.010510771 -0.2172123 0 0 0 3.6274931e-38
-0.28825963 0.011803607 -0.24124239 0 0 0 3.6274931e-38
-0.26700282 0.011547601 -0.27933353 0 0 0 3.6274931e-38
-0.29274714 0.098879732 -0.31090084 0 0 0 3.6274931e-38
-0.31019056 0.098289907 -0.34286162 0 0 0 3.6274931e-38
-0.28490937 0.099094555 -0.38237327 0 0 0 3.6274931e-38
-0.24665713 0.1002766 -0.42543575 0 0 0 3.6274931e-38
-0.21000004 0.0032890812 0.029999619 0 0 0 3.6274931e-38
-0.18779635 0.0029402748 -0.006851173 0 0 0 3.6274931e-38
-0.17425084 0.0027274899 -0.044167683 0 0 0 3.6274931e-38
-0.19677162 -0.088055149 -0.080654413 0 0 0 3.6274931e-38
-0.15466738 -0.090562508 -0.11993771 0 0 0 3.6274931e-38
-0.12539101 0.09639664 -0.14686622 0 0 0 3.6274931e-38
-0.11975074 0.0018713325 -0.18540668 0 0 0 3.6274931e-38
-0.16311574 0.0025525652 -0.21906883 0 0 0 3.6274931e-38
-0.28836071 0.0045200661 -0.24124239 0 0 0 3.6274931e-38
-0.30671871 0.0048084557 -0.27382401 0 0 0 3.6274931e-38
-0.29450417 0.0915564 -0.31059116 0 0 0 3.6274931e-38
-0.30012703 0.09136346 -0.34457937 0 0 0 3.6274931e-38
-0.28861725 0.091687575 -0.3816191 0 0 0 3.6274931e-38
-0.29143822 0.091573477 -0.41599986 0 0 0 3.6274931e-38
-0.20813346 -0.004319977 0.030028662 0 0 0 3.6274931e-38
-0.19592905 -0.0045564473 -0.0068249232 0 0 0 3.6274931e-38
-0.15440822 0.087798283 -0.032034826 0 0 0 3.6274931e-38
-0.17638516 -0.0049351156 -0.044125658 0 0 0 3.6274931e-38
-0.16732144 -0.097565055 -0.081815466 0 0 0 3.6274931e-38
-0.12292552 0.088570997 -0.10885289 0 0 0 3.6274931e-38
-0.16710162 -0.097578943 -0.11926137 0 0 0 3.6274931e-38
-0.10723042 0.088956222 -0.14809237 0 0 0 3.6274931e-38
-0.10793567 -0.0062613636 -0.18643481 0 0 0 3.6274931e-38
-0.12943912 -0.0058447197 -0.22257558 0 0 0 3.6274931e-38
-0.28054833 -0.0029169023 -0.24220639 0 0 0 3.6274931e-38
-0.28109801 -0.0029062517 -0.2774052 0 0 0 3.6274931e-38
-0.30023873 0.084149972 -0.30966216 0 0 0 3.6274931e-38
-0.32554233 0.083495751 -0.34011322 0 0 0 3.6274931e-38
-0.32573271 0.083491087 -0.37445432 0 0 0 3.6274931e-38
-0.31668639 0.083678439 -0.41066653 0 0 0 3.6274931e-38
-0.19713497 -0.011065412 0.067039751 0 0 0 3.6274931e-38
-0.20427108 -0.010904718 0.030086743 0 0 0 3.6274931e-38
-0.20806265 -0.010819335 -0.0067855488 0 0 0 3.6274931e-38
-0.16825032 0.080834828 -0.031823475 0 0 0 3.6274931e-38
-0.19251561 -0.011169434 -0.043789461 0 0 0 3.6274931e-38
-0.17913675 0.080601841 -0.068827622 0 0 0 3.6274931e-38
-0.15578604 -0.10498178 -0.082279891 0 0 0 3.6274931e-38
-0.13674903 0.081508987 -0.10814606 0 0 0 3.6274931e-38
-0.12502789 0.081759825 -0.14686622 0 0 0 3.6274931e-38
-0.10409403 -0.013160557 -0.18677752 0 0 0 3.6274931e-38
-0.11764741 -0.012855355 -0.22381325 0 0 0 3.6274931e-38
-0.25487566 -0.009765178 -0.24533941 0 0 0 3.6274931e-38
-0.27330756 -0.009350121 -0.27850711 0 0 0 3.6274931e-38
-0.30404723 0.077859774 -0.30904284 0 0 0 3.6274931e-38
-0.30570364 0.077789992 -0.34354872 0 0 0 3.6274931e-38
-0.31970131 0.077491164 -0.37558559 0 0 0 3.6274931e-38
-0.32045949 0.077440843 -0.40984601 0 0 0 3.6274931e-38
-0.03153801 0.18195052 -0.51065534 0 0 0 3.6274931e-38
-0.053869963 0.18041754 -0.54458177 0 0 0 3.6274931e-38
-0.041850328 0.18108284 -0.58664894 0 0 0 3.6274931e-38
-0.055485487 0.18011779 -0.62182605 0 0 0 3.6274931e-38
-0.15335846 -0.019833971 0.068457894 0 0 0 3.6274931e-38
-0.18846297 -0.018914726 0.030319074 0 0 0 3.6274931e-38
-0.17225981 -0.019339021 -0.0069036726 0 0 0 3.6274931e-38
-0.16609955 0.073146433 -0.031853668 0 0 0 3.6274931e-38
-0.18470597 -0.019013103 -0.043957561 0 0 0 3.6274931e-38
-0.1590004 0.073272333 -0.06948375 0 0 0 3.6274931e-38
-0.14036703 -0.11386757 -0.082899116 0 0 0 3.6274931e-38
-0.12661004 0.073846757 -0.10865094 0 0 0 3.6274931e-38
-0.10292816 0.074266732 -0.14836486 0 0 0 3.6274931e-38
-0.11424756 -0.020858124 -0.18592075 0 0 0 3.6274931e-38
-0.10391951 -0.021128576 -0.2252572 0 0 0 3.6274931e-38
-0.23719311 -0.017638683 -0.24750842 0 0 0 3.6274931e-38
-0.26754546 -0.016843881 -0.27933353 0 0 0 3.6274931e-38
-0.31971073 0.070353925 -0.30656555 0 0 0 3.6274931e-38
-0.31541264 0.070395783 -0.34183097 0 0 0 3.6274931e-38
-0.32741666 0.070183523 -0.37407723 0 0 0 3.6274931e-38
-0.33793426 0.069963723 -0.40615371 0 0 0 3.6274931e-38
-0.044643879 0.17288716 -0.50755513 0 0 0 3.6274931e-38
-0.053354502 0.17227378 -0.54458177 0 0 0 3.6274931e-38
-0.078022003 0.17064263 -0.57701516 0 0 0 3.6274931e-38
-0.053048611 0.17209791 -0.62236446 0 0 0 3.6274931e-38
-0.19667292 -0.026325133 0.030202908 0 0 0 3.6274931e-38
-0.18846846 -0.026570067 -0.006851173 0 0 0 3.6274931e-38
-0.15197968 0.065611653 -0.032065019 0 0 0 3.6274931e-38
-0.20490742 -0.026079301 -0.043537315 0 0 0 3.6274931e-38
-0.17286801 0.065317787 -0.069024459 0 0 0 3.6274931e-38
-0.12049294 0.066054612 -0.10895387 0 0 0 3.6274931e-38
-0.11876297 0.066078953 -0.14727494 0 0 0 3.6274931e-38
-0.11446953 -0.028779224 -0.18592075 0 0 0 3.6274931e-38
-0.11607313 -0.028731354 -0.22401953 0 0 0 3.6274931e-38
-0.11634541 -0.028723225 -0.2622095 0 0 0 3.6274931e-38
-0.27171183 -0.024084926 -0.27878258 0 0 0 3.6274931e-38
-0.31959701 0.063185267 -0.30656555 0 0 0 3.6274931e-38
-0.32908928 0.063018084 -0.33942613 0 0 0 3.6274931e-38
-0.33319533 0.062960528 -0.37294593 0 0 0 3.6274931e-38
-0.33390725 0.062916659 -0.40697423 0 0 0 3.6274931e-38
-0.044156075 0.16470964 -0.50755513 0 0 0 3.6274931e-38
-0.047050714 0.16446431 -0.54600739 0 0 0 3.6274931e-38
-0.071748018 0.16292188 -0.57853627 0 0 0 3.6274931e-38
-0.062178612 0.16339663 -0.61967254 0 0 0 3.6274931e-38
-0.19773912 -0.032827325 0.067039751 0 0 0 3.6274931e-38
-0.1888833 -0.033119552 0.030319074 0 0 0 3.6274931e-38
-0.17068458 -0.033720091 -0.0069102347 0 0 0 3.6274931e-38
-0.14789701 0.058983888 -0.032125406 0 0 0 3.6274931e-38
-0.19112253 -0.033045657 -0.043831486 0 0 0 3.6274931e-38
-0.15879393 0.058864828 -0.06948375 0 0 0 3.6274931e-38
-0.1283977 0.059196942 -0.10854996 0 0 0 3.6274931e-38
-0.11468768 0.059346743 -0.14754742 0 0 0 3.6274931e-38
-0.11429811 -0.035580762 -0.2242258 0 0 0 3.6274931e-38
-0.10862112 -0.035768092 -0.26317352 0 0 0 3.6274931e-38
-0.24617147 -0.031229123 -0.28236377 0 0 0 3.6274931e-38
-0.31359315 0.05710496 -0.30749455 0 0 0 3.6274931e-38
-0.31325197 0.057074424 -0.34217453 0 0 0 3.6274931e-38
-0.32329929 0.056965172 -0.37483141 0 0 0 3.6274931e-38
-0.33578873 0.056795504 -0.40656397 0 0 0 3.6274931e-38
-0.16255569 0.15120709 -0.48053864 0 0 0 3.6274931e-38
-0.15334821 0.15163597 -0.51987123 0 0 0 3.6274931e-38
-0.10613155 0.1541007 -0.56940949 0 0 0 3.6274931e-38
-0.081021786 0.15539387 -0.61428881 0 0 0 3.6274931e-38
-0.18601871 -0.040881835 0.067426518 0 0 0 3.6274931e-38
-0.19714355 -0.040473901 0.030202908 0 0 0 3.6274931e-38
-0.18094635 -0.041067824 -0.0068774228 0 0 0 3.6274931e-38
-0.16982293 0.051025864 -0.031793281 0 0 0 3.6274931e-38
-0.19538522 -0.040538378 -0.043747436 0 0 0 3.6274931e-38
-0.15072775 0.051164508 -0.069746196 0 0 0 3.6274931e-38
-0.14230776 0.051225644 -0.10784312 0 0 0 3.6274931e-38
-0.10663462 0.051484659 -0.14809237 0 0 0 3.6274931e-38
-0.10871792 0.14660239 -0.21223845 0 0 0 3.6274931e-38
-0.096682072 -0.044157654 -0.22608232 0 0 0 3.6274931e-38
-0.08508873 -0.044582754 -0.26606554 0 0 0 3.6274931e-38
-0.23059368 -0.039247341 -0.28456759 0 0 0 3.6274931e-38
-0.32933462 0.049799751 -0.30501723 0 0 0 3.6274931e-38
-0.33879983 0.049697556 -0.33770838 0 0 0 3.6274931e-38
-0.32912683 0.049767278 -0.37370011 0 0 0 3.6274931e-38
-0.35138392 0.049573258 -0.4032819 0 0 0 3.6274931e-38
-0.19136405 0.1419726 -0.47389525 0 0 0 3.6274931e-38
-0.18786144 0.14207807 -0.51131761 0 0 0 3.6274931e-38
-0.1849308 0.14211762 -0.5486207 0 0 0 3.6274931e-38
-0.11522436 0.14558904 -0.60459799 0 0 0 3.6274931e-38
-0.20428944 -0.047814615 0.066846363 0 0 0 3.6274931e-38
-0.18744612 -0.048494063 0.030348115 0 0 0 3.6274931e-38
-0.17524695 -0.048986167 -0.00689711 0 0 0 3.6274931e-38
-0.15178323 0.04337268 -0.032065019 0 0 0 3.6274931e-38
-0.18768692 -0.048484348 -0.043915536 0 0 0 3.6274931e-38
-0.14868665 0.043383811 -0.069811814 0 0 0 3.6274931e-38
-0.13028073 0.04344999 -0.10844898 0 0 0 3.6274931e-38
-0.12654471 0.04346342 -0.14672998 0 0 0 3.6274931e-38
-0.12622046 0.13781007 -0.21048602 0 0 0 3.6274931e-38
-0.091349363 -0.052370504 -0.26534253 0 0 0 3.6274931e-38
-0.22296476 -0.047061272 -0.28566951 0 0 0 3.6274931e-38
-0.3115133 0.042729821 -0.3078042 0 0 0 3.6274931e-38
-0.31314826 0.042689748 -0.34217453 0 0 0 3.6274931e-38
-0.33301675 0.042619355 -0.37294593 0 0 0 3.6274931e-38
-0.3396014 0.042562235 -0.40574345 0 0 0 3.6274931e-38
-0.17929959 0.13488591 -0.47655261 0 0 0 3.6274931e-38
-0.18554497 0.1345174 -0.51179284 0 0 0 3.6274931e-38
-0.19228506 0.13408953 -0.54659253 0 0 0 3.6274931e-38
-0.17063332 0.13503809 -0.58898503 0 0 0 3.6274931e-38
-0.22053885 -0.053626418 0.066330671 0 0 0 3.6274931e-38
-0.17972946 -0.055401064 0.03046428 0 0 0 3.6274931e-38
-0.17951965 -0.055410184 -0.0068839849 0 0 0 3.6274931e-38
-0.19176507 0.036682561 -0.031461157 0 0 0 3.6274931e-38
-0.17797351 -0.055477418 -0.044125658 0 0 0 3.6274931e-38
-0.17266011 0.03669123 -0.069024459 0 0 0 3.6274931e-38
-0.16622114 0.036694154 -0.10663141 0 0 0 3.6274931e-38
-0.1245358 0.036713071 -0.14686622 0 0 0 3.6274931e-38
-0.15840125 0.1296536 -0.16980016 0 0 0 3.6274931e-38
-0.14380717 0.13026372 -0.20873359 0 0 0 3.6274931e-38
-0.23115134 -0.053164922 -0.28456759 0 0 0 3.6274931e-38
-0.33323574 0.036550559 -0.30439791 0 0 0 3.6274931e-38
-0.33086848 0.036517609 -0.33908257 0 0 0 3.6274931e-38
-0.33693302 0.036515176 -0.37219176 0 0 0 3.6274931e-38
-0.34741938 0.036477312 -0.40410241 0 0 0 3.6274931e-38
-0.22965813 0.12606329 -0.46503741 0 0 0 3.6274931e-38
-0.21047592 0.12683797 -0.50561517 0 0 0 3.6274931e-38
-0.20551586 0.12694821 -0.54304326 0 0 0 3.6274931e-38
-0.20689344 0.12681514 -0.57875586 0 0 0 3.6274931e-38
-0.21089649 -0.06162855 0.066652983 0 0 0 3.6274931e-38
-0.18806767 -0.062705122 0.030348115 0 0 0 3.6274931e-38
-0.17587233 -0.063280247 -0.00689711 0 0 0 3.6274931e-38
-0.16977835 0.028974542 -0.031793281 0 0 0 3.6274931e-38
-0.1723299 -0.063447304 -0.044251729 0 0 0 3.6274931e-38
-0.15667963 0.028932478 -0.069549359 0 0 0 3.6274931e-38
-0.1422627 0.028886179 -0.10784312 0 0 0 3.6274931e-38
-0.10060239 0.028752394 -0.1485011 0 0 0 3.6274931e-38
-0.13615966 0.12278488 -0.17155728 0 0 0 3.6274931e-38
-0.14347506 0.12244994 -0.20873359 0 0 0 3.6274931e-38
-0.33126986 0.029425284 -0.30470759 0 0 0 3.6274931e-38
-0.34073007 0.029422225 -0.33736485 0 0 0 3.6274931e-38
-0.33301485 0.029397044 -0.37294593 0 0 0 3.6274931e-38
-0.3356849 0.029371902 -0.40656397 0 0 0 3.6274931e-38
-0.21180201 0.11927415 -0.46902344 0 0 0 3.6274931e-38
-0.21403813 0.11911155 -0.50466478 0 0 0 3.6274931e-38
-0.19746304 0.11967293 -0.54507142 0 0 0 3.6274931e-38
-0.20464897 0.11931027 -0.57929426 0 0 0 3.6274931e-38
-0.21126723 -0.069195144 0.066652983 0 0 0 3.6274931e-38
-0.18045378 -0.070761479 0.03046428 0 0 0 3.6274931e-38
-0.19822073 -0.069858335 -0.0068249232 0 0 0 3.6274931e-38
-0.20581222 0.021504156 -0.031249806 0 0 0 3.6274931e-38
-0.16871357 -0.071358263 -0.044335779 0 0 0 3.6274931e-38
-0.18070531 0.021331504 -0.068762012 0 0 0 3.6274931e-38
-0.18424749 0.021355864 -0.10572261 0 0 0 3.6274931e-38
-0.13256764 0.021000478 -0.14632127 0 0 0 3.6274931e-38
-0.12589383 0.11531186 -0.17235595 0 0 0 3.6274931e-38
-0.17300868 0.11353101 -0.20581289 0 0 0 3.6274931e-38
-0.31549942 0.022190018 -0.30718488 0 0 0 3.6274931e-38
-0.32106388 0.022194363 -0.34080032 0 0 0 3.6274931e-38
-0.32715893 0.022236595 -0.37407723 0 0 0 3.6274931e-38
-0.35921037 0.022425234 -0.40164089 0 0 0 3.6274931e-38
-0.22710204 0.11113574 -0.4654803 0 0 0 3.6274931e-38
-0.20792222 0.11176943 -0.5060904 0 0 0 3.6274931e-38
-0.21843624 0.11127494 -0.53949392 0 0 0 3.6274931e-38
-0.2216804 0.11108402 -0.57444882 0 0 0 3.6274931e-38
-0.20561886 -0.076002941 0.066846363 0 0 0 3.6274931e-38
-0.17680478 -0.077558398 0.030522361 0 0 0 3.6274931e-38
-0.15662408 -0.07864783 -0.0069627343 0 0 0 3.6274931e-38
-0.19386911 0.014881834 -0.031430963 0 0 0 3.6274931e-38
-0.15907717 -0.078515403 -0.0445459 0 0 0 3.6274931e-38
-0.17276549 0.014670407 -0.069024459 0 0 0 3.6274931e-38
-0.16233206 0.014565881 -0.10683336 0 0 0 3.6274931e-38
-0.10868144 0.014028382 -0.14795613 0 0 0 3.6274931e-38
-0.12166929 0.10869318 -0.17267543 0 0 0 3.6274931e-38
-0.16481733 0.10719477 -0.20659174 0 0 0 3.6274931e-38
-0.31752741 0.016052349 -0.30687523 0 0 0 3.6274931e-38
-0.32899678 0.016133677 -0.33942613 0 0 0 3.6274931e-38
-0.3389951 0.016234368 -0.37181464 0 0 0 3.6274931e-38
-0.34751737 0.016286541 -0.40410241 0 0 0 3.6274931e-38
-0.24636769 0.10404389 -0.46105137 0 0 0 3.6274931e-38
-0.22128487 0.10481644 -0.50276399 0 0 0 3.6274931e-38
-0.22207618 0.1046822 -0.53847986 0 0 0 3.6274931e-38
-0.21567869 0.10482501 -0.57606399 0 0 0 3.6274931e-38
-0.17211628 -0.085544944 0.06794221 0 0 0 3.6274931e-38
-0.17523766 -0.085364975 0.030551404 0 0 0 3.6274931e-38
-0.17502761 -0.085377082 -0.0069036726 0 0 0 3.6274931e-38
-0.20195794 0.007361766 -0.031310193 0 0 0 3.6274931e-38
-0.15951014 -0.086271815 -0.0445459 0 0 0 3.6274931e-38
-0.21682906 0.0075652637 -0.067580983 0 0 0 3.6274931e-38
-0.19238281 0.0072307382 -0.10531871 0 0 0 3.6274931e-38
-0.10274005 0.1013625 -0.1355437 0 0 0 3.6274931e-38
-0.13870311 0.0064961743 -0.14591254 0 0 0 3.6274931e-38
-0.13735819 0.10031692 -0.17139754 0 0 0 3.6274931e-38
-0.19242382 0.098617353 -0.20386574 0 0 0 3.6274931e-38
-0.31958842 0.008903157 -0.30656555 0 0 0 3.6274931e-38
-0.32120144 0.008891169 -0.34080032 0 0 0 3.6274931e-38
-0.31747627 0.0088399984 -0.37596267 0 0 0 3.6274931e-38
-0.33781517 0.0090855584 -0.40615371 0 0 0 3.6274931e-38
-0.25197935 0.096430764 -0.45972267 0 0 0 3.6274931e-38
-0.22687101 0.097112283 -0.50133836 0 0 0 3.6274931e-38
-0.2237711 0.097097628 -0.53797281 0 0 0 3.6274931e-38
-0.20773792 0.097504877 -0.57821751 0 0 0 3.6274931e-38
-0.16571546 -0.093674257 0.03069661 0 0 0 3.6274931e-38
-0.15951562 -0.09405455 -0.0069561717 0 0 0 3.6274931e-38
-0.20407534 -0.0002033636 -0.03128 0 0 0 3.6274931e-38
-0.14400506 -0.095005929 -0.044882096 0 0 0 3.6274931e-38
-0.20295572 -0.00022279099 -0.068040274 0 0 0 3.6274931e-38
-0.18650985 -0.00050812587 -0.10562164 0 0 0 3.6274931e-38
-0.078569174 0.094033778 -0.13703731 0 0 0 3.6274931e-38
-0.12286425 -0.0016124025 -0.14700246 0 0 0 3.6274931e-38
-0.15307903 0.092056639 -0.17011964 0 0 0 3.6274931e-38
-0.18822765 0.091087505 -0.20425516 0 0 0 3.6274931e-38
-0.31574881 0.001665771 -0.30718488 0 0 0 3.6274931e-38
-0.33904266 0.0020369329 -0.33770838 0 0 0 3.6274931e-38
-0.33526242 0.0019711442 -0.37256885 0 0 0 3.6274931e-38
-0.35554051 0.0022905171 -0.40246141 0 0 0 3.6274931e-38
-0.24787116 0.089116335 -0.46060848 0 0 0 3.6274931e-38
-0.23831224 0.089296818 -0.49848717 0 0 0 3.6274931e-38
-0.23516393 0.089272678 -0.53493053 0 0 0 3.6274931e-38
-0.22100401 0.089572445 -0.57444882 0 0 0 3.6274931e-38
-0.20411992 -0.098941028 0.030144826 0 0 0 3.6274931e-38
-0.16998458 -0.10116044 -0.0069233598 0 0 0 3.6274931e-38
-0.21021891 -0.0076693147 -0.031189419 0 0 0 3.6274931e-38
-0.14848924 -0.10255802 -0.044798046 0 0 0 3.6274931e-38
-0.20510006 -0.0077769011 -0.067974657 0 0 0 3.6274931e-38
-0.18865371 -0.0081225485 -0.10552066 0 0 0 3.6274931e-38
-0.11628652 0.085114062 -0.13467245 0 0 0 3.6274931e-38
-0.14495969 -0.0090408623 -0.14550382 0 0 0 3.6274931e-38
-0.14092827 0.08455056 -0.17107806 0 0 0 3.6274931e-38
-0.18206906 0.083573207 -0.20483932 0 0 0 3.6274931e-38
-0.3119359 -0.0056001246 -0.3078042 0 0 0 3.6274931e-38
-0.32145071 -0.0054339394 -0.34080032 0 0 0 3.6274931e-38
-0.32754445 -0.0053055473 -0.37407723 0 0 0 3.6274931e-38
-0.34589076 -0.0049526989 -0.40451267 0 0 0 3.6274931e-38
-0.23404002 0.081993505 -0.46370873 0 0 0 3.6274931e-38
-0.23036075 0.082005456 -0.50038797 0 0 0 3.6274931e-38
-0.22724485 0.081968643 -0.53695875 0 0 0 3.6274931e-38
-0.22082067 0.082041882 -0.57444882 0 0 0 3.6274931e-38
-0.15438104 0.07761316 0.04321789 0 0 0 3.6274931e-38
-0.18659687 -0.10667202 0.030406198 0 0 0 3.6274931e-38
-0.2219348 0.076279491 0.0054132021 0 0 0 3.6274931e-38
-0.15047145 -0.10913481 -0.0069889841 0 0 0 3.6274931e-38
-0.21236467 -0.01410915 -0.031159226 0 0 0 3.6274931e-38
-0.16289878 -0.1082876 -0.044503879 0 0 0 3.6274931e-38
-0.21124196 -0.014136277 -0.06777782 0 0 0 3.6274931e-38
-0.15005875 0.077698492 -0.094899908 0 0 0 3.6274931e-38
-0.188802 -0.01467843 -0.10552066 0 0 0 3.6274931e-38
-0.1061635 0.078527205 -0.13529478 0 0 0 3.6274931e-38
-0.15508461 -0.015493035 -0.14482263 0 0 0 3.6274931e-38
-0.15673137 0.077529766 -0.16980016 0 0 0 3.6274931e-38
-0.20183015 0.076603994 -0.20289217 0 0 0 3.6274931e-38
-0.3041743 -0.011959884 -0.30904284 0 0 0 3.6274931e-38
-0.31962001 -0.011620332 -0.34114388 0 0 0 3.6274931e-38
-0.32571948 -0.011472646 -0.37445432 0 0 0 3.6274931e-38
-0.34798503 -0.010967206 -0.40410241 0 0 0 3.6274931e-38
-0.26120448 0.075047009 -0.45750821 0 0 0 3.6274931e-38
-0.23799491 0.075428799 -0.49848717 0 0 0 3.6274931e-38
-0.23291254 0.075420812 -0.53543758 0 0 0 3.6274931e-38
-0.2245369 0.075511917 -0.57337207 0 0 0 3.6274931e-38
-0.16823697 0.069613501 0.04293276 0 0 0 3.6274931e-38
-0.18380499 0.069363236 0.0055133491 0 0 0 3.6274931e-38
-0.14503217 -0.11735259 -0.0070086713 0 0 0 3.6274931e-38
-0.21456027 -0.021615054 -0.031129034 0 0 0 3.6274931e-38
-0.21143866 -0.021701925 -0.06777782 0 0 0 3.6274931e-38
-0.11196184 0.070518173 -0.09659455 0 0 0 3.6274931e-38
-0.20297742 -0.021937381 -0.10481382 0 0 0 3.6274931e-38
-0.10003352 0.070671961 -0.13566817 0 0 0 3.6274931e-38
-0.15528655 -0.023264505 -0.14482263 0 0 0 3.6274931e-38
-0.13466549 0.07011582 -0.17155728 0 0 0 3.6274931e-38
-0.20169425 0.069003239 -0.20289217 0 0 0 3.6274931e-38
-0.32213831 -0.018689647 -0.30625588 0 0 0 3.6274931e-38
-0.30602014 -0.019173145 -0.34354872 0 0 0 3.6274931e-38
-0.30627191 -0.019166123 -0.37822524 0 0 0 3.6274931e-38
-0.33838558 -0.018304627 -0.40615371 0 0 0 3.6274931e-38
-0.29032552 0.067200273 -0.45086482 0 0 0 3.6274931e-38
-0.24563313 0.06783773 -0.49658635 0 0 0 3.6274931e-38
-0.22697759 0.068025455 -0.53695875 0 0 0 3.6274931e-38
-0.23788643 0.067782372 -0.56960344 0 0 0 3.6274931e-38
-0.16414213 0.063044816 0.043014225 0 0 0 3.6274931e-38
-0.19970822 0.062584817 0.0054711821 0 0 0 3.6274931e-38
-0.21275187 -0.028151393 -0.031159226 0 0 0 3.6274931e-38
-0.20363736 -0.028433681 -0.068040274 0 0 0 3.6274931e-38
-0.14183092 0.063333377 -0.095256671 0 0 0 3.6274931e-38
-0.19917583 -0.028571866 -0.10501578 0 0 0 3.6274931e-38
-0.099934578 0.063837275 -0.13566817 0 0 0 3.6274931e-38
-0.1574769 -0.029863365 -0.14468639 0 0 0 3.6274931e-38
-0.15450239 0.063132465 -0.1699599 0 0 0 3.6274931e-38
-0.19562912 0.062564962 -0.20347631 0 0 0 3.6274931e-38
-0.27097082 -0.026418272 -0.31430709 0 0 0 3.6274931e-38
-0.29044771 -0.025849029 -0.34629712 0 0 0 3.6274931e-38
-0.30252779 -0.025474254 -0.37897944 0 0 0 3.6274931e-38
-0.30139089 -0.025544014 -0.41394857 0 0 0 3.6274931e-38
-0.31168854 0.06069085 -0.44599301 0 0 0 3.6274931e-38
-0.26496792 0.06121432 -0.49183434 0 0 0 3.6274931e-38
-0.2384932 0.061443128 -0.53391647 0 0 0 3.6274931e-38
-0.22238755 0.06157469 -0.57391047 0 0 0 3.6274931e-38
-0.17805266 0.055176299 0.042729095 0 0 0 3.6274931e-38
-0.21362329 0.05484663 0.0054342858 0 0 0 3.6274931e-38
-0.23098707 -0.035088316 -0.03088749 0 0 0 3.6274931e-38
-0.21387506 -0.035681091 -0.06771221 0 0 0 3.6274931e-38
-0.117769 0.055735011 -0.09632697 0 0 0 3.6274931e-38
-0.19942546 -0.036181644 -0.10501578 0 0 0 3.6274931e-38
-0.10383821 0.055826213 -0.13541923 0 0 0 3.6274931e-38
-0.16570807 -0.037349649 -0.14414142 0 0 0 3.6274931e-38
-0.13248754 0.055561192 -0.171717 0 0 0 3.6274931e-38
-0.18957329 0.054996707 -0.20406045 0 0 0 3.6274931e-38
-0.2672627 -0.03390187 -0.31492645 0 0 0 3.6274931e-38
-0.2572124 -0.034285642 -0.35213745 0 0 0 3.6274931e-38
-0.23602509 -0.035020702 -0.39180064 0 0 0 3.6274931e-38
-0.24685264 -0.034680508 -0.42543575 0 0 0 3.6274931e-38
-0.33696365 0.053263627 -0.44023541 0 0 0 3.6274931e-38
-0.28431451 0.053670123 -0.4870823 0 0 0 3.6274931e-38
-0.26936603 0.053699702 -0.5258038 0 0 0 3.6274931e-38
-0.25119829 0.053791706 -0.56583482 0 0 0 3.6274931e-38
-0.19199252 0.047410123 0.042443961 0 0 0 3.6274931e-38
-0.19556737 0.047390092 0.0054817237 0 0 0 3.6274931e-38
-0.18929601 -0.044189163 -0.031521544 0 0 0 3.6274931e-38
-0.18418884 -0.044384822 -0.068696395 0 0 0 3.6274931e-38
-0.11371446 0.047848683 -0.096505359 0 0 0 3.6274931e-38
-0.17774725 -0.044631608 -0.10612652 0 0 0 3.6274931e-38
-0.10577536 0.047855292 -0.13529478 0 0 0 3.6274931e-38
-0.16599011 -0.045082033 -0.14414142 0 0 0 3.6274931e-38
-0.13442278 0.04769529 -0.17155728 0 0 0 3.6274931e-38
-0.17359304 0.047439832 -0.20561817 0 0 0 3.6274931e-38
-0.24976134 -0.041943468 -0.31771338 0 0 0 3.6274931e-38
-0.24370074 -0.042211391 -0.35454229 0 0 0 3.6274931e-38
-0.23629832 -0.042495377 -0.39180064 0 0 0 3.6274931e-38
-0.2275641 -0.042866252 -0.42953831 0 0 0 3.6274931e-38
-0.33691251 0.046158321 -0.44023541 0 0 0 3.6274931e-38
-0.30757451 0.046247337 -0.48137987 0 0 0 3.6274931e-38
-0.29059458 0.046234086 -0.5202263 0 0 0 3.6274931e-38
-0.24536729 0.046402402 -0.56744993 0 0 0 3.6274931e-38
-0.19596291 0.039765757 0.042362496 0 0 0 3.6274931e-38
-0.22553849 0.039708458 0.0054026605 0 0 0 3.6274931e-38
-0.20358896 -0.05124788 -0.031310193 0 0 0 3.6274931e-38
-0.20247102 -0.051294811 -0.068105884 0 0 0 3.6274931e-38
-0.14165664 0.03987097 -0.095256671 0 0 0 3.6274931e-38
-0.20599556 -0.051146843 -0.10471284 0 0 0 3.6274931e-38
-0.12770271 0.039860517 -0.13392565 0 0 0 3.6274931e-38
-0.18623662 -0.051976375 -0.14277904 0 0 0 3.6274931e-38
-0.13638711 0.039843842 -0.17139754 0 0 0 3.6274931e-38
-0.21337414 0.039660044 -0.20172389 0 0 0 3.6274931e-38
-0.21452522 -0.050860815 -0.32328731 0 0 0 3.6274931e-38
-0.20659804 -0.051230073 -0.36106971 0 0 0 3.6274931e-38
-0.22286177 -0.050546423 -0.39444029 0 0 0 3.6274931e-38
-0.22395444 -0.050536372 -0.43035883 0 0 0 3.6274931e-38
-0.34078801 0.039046198 -0.43934962 0 0 0 3.6274931e-38
-0.30949187 0.039031103 -0.48090467 0 0 0 3.6274931e-38
-0.30604672 0.038933754 -0.51616997 0 0 0 3.6274931e-38
-0.2954222 0.038881879 -0.55345213 0 0 0 3.6274931e-38
-0.21353602 0.033253767 0.0054342858 0 0 0 3.6274931e-38
-0.1818974 -0.058748364 -0.031642314 0 0 0 3.6274931e-38
-0.20475149 -0.057716951 -0.068040274 0 0 0 3.6274931e-38
-0.13765812 0.033162393 -0.095435053 0 0 0 3.6274931e-38
-0.17036128 -0.059268989 -0.10653043 0 0 0 3.6274931e-38
-0.11372757 0.033095844 -0.1347969 0 0 0 3.6274931e-38
-0.16260242 -0.059619136 -0.1444139 0 0 0 3.6274931e-38
-0.11644864 0.033099171 -0.1729949 0 0 0 3.6274931e-38
-0.16360974 0.033119924 -0.20659174 0 0 0 3.6274931e-38
-0.23059845 -0.056622013 -0.32081002 0 0 0 3.6274931e-38
-0.22853231 -0.056751132 -0.35729066 0 0 0 3.6274931e-38
-0.22706723 -0.056817316 -0.39368612 0 0 0 3.6274931e-38
-0.21250272 -0.057511464 -0.43282035 0 0 0 3.6274931e-38
-0.3544395 0.032987569 -0.43624938 0 0 0 3.6274931e-38
-0.31726217 0.032866005 -0.47900388 0 0 0 3.6274931e-38
-0.32732761 0.032778755 -0.51059246 0 0 0 3.6274931e-38
-0.30312681 0.032673158 -0.55129862 0 0 0 3.6274931e-38
-0.20555925 0.025657253 0.0054553691 0 0 0 3.6274931e-38
-0.21022129 -0.065056555 -0.031219613 0 0 0 3.6274931e-38
-0.18114948 -0.066475354 -0.068827622 0 0 0 3.6274931e-38
-0.17764163 0.02552131 -0.09365122 0 0 0 3.6274931e-38
-0.16473842 -0.067276269 -0.10683336 0 0 0 3.6274931e-38
-0.12972069 0.025250509 -0.13380118 0 0 0 3.6274931e-38
-0.19286084 -0.06590379 -0.14237031 0 0 0 3.6274931e-38
-0.11447906 0.025176024 -0.17315464 0 0 0 3.6274931e-38
-0.16363335 0.025379376 -0.20659174 0 0 0 3.6274931e-38
-0.23292422 -0.064020045 -0.32050034 0 0 0 3.6274931e-38
-0.21314168 -0.065022275 -0.36003906 0 0 0 3.6274931e-38
-0.20780253 -0.06528312 -0.39745703 0 0 0 3.6274931e-38
-0.20308256 -0.06554997 -0.43487164 0 0 0 3.6274931e-38
-0.33495927 0.025847051 -0.4406783 0 0 0 3.6274931e-38
-0.32117128 0.02570856 -0.47805345 0 0 0 3.6274931e-38
-0.32541692 0.025628235 -0.51109952 0 0 0 3.6274931e-38
-0.31470811 0.025504278 -0.54806834 0 0 0 3.6274931e-38
-0.22960901 0.018275335 0.0053921188 0 0 0 3.6274931e-38
-0.20261645 -0.073044799 -0.031340387 0 0 0 3.6274931e-38
-0.18952274 -0.073731922 -0.068565175 0 0 0 3.6274931e-38
-0.16770339 0.017746981 -0.094097182 0 0 0 3.6274931e-38
-0.18507719 -0.073965229 -0.10582359 0 0 0 3.6274931e-38
-0.12178922 0.01731752 -0.13429904 0 0 0 3.6274931e-38
-0.19524002 -0.073431894 -0.14223407 0 0 0 3.6274931e-38
-0.11851954 0.017289557 -0.17283517 0 0 0 3.6274931e-38
-0.13780999 0.01741722 -0.20912303 0 0 0 3.6274931e-38
-0.22541094 -0.071920358 -0.32173899 0 0 0 3.6274931e-38
-0.21352482 -0.072580621 -0.36003906 0 0 0 3.6274931e-38
-0.22780085 -0.071830705 -0.39368612 0 0 0 3.6274931e-38
-0.21324158 -0.072631583 -0.43282035 0 0 0 3.6274931e-38
-0.35841179 0.018939633 -0.43536359 0 0 0 3.6274931e-38
-0.33287704 0.018648088 -0.47520226 0 0 0 3.6274931e-38
-0.33900917 0.018600624 -0.50755024 0 0 0 3.6274931e-38
-0.31861103 0.018351808 -0.54699159 0 0 0 3.6274931e-38
-0.22167468 0.011754584 0.0054132021 0 0 0 3.6274931e-38
-0.19298506 -0.080111861 -0.03149135 0 0 0 3.6274931e-38
-0.17590618 -0.081061929 -0.069024459 0 0 0 3.6274931e-38
-0.17775965 0.011241801 -0.09365122 0 0 0 3.6274931e-38
-0.17944884 -0.080864854 -0.10612652 0 0 0 3.6274931e-38
-0.12584972 0.010598136 -0.13405012 0 0 0 3.6274931e-38
-0.10264015 0.010326721 -0.17411307 0 0 0 3.6274931e-38
-0.11797452 0.010468382 -0.21107017 0 0 0 3.6274931e-38
-0.22378635 -0.07847026 -0.32204866 0 0 0 3.6274931e-38
-0.19617009 -0.080043882 -0.36313099 0 0 0 3.6274931e-38
-0.19873261 -0.079901211 -0.39934251 0 0 0 3.6274931e-38
-0.19991112 -0.079871908 -0.43569216 0 0 0 3.6274931e-38
-0.35847402 0.012916928 -0.43536359 0 0 0 3.6274931e-38
-0.30574405 0.01222048 -0.48185509 0 0 0 3.6274931e-38
-0.32746542 0.012377789 -0.51059246 0 0 0 3.6274931e-38
-0.32252741 0.012250394 -0.54591483 0 0 0 3.6274931e-38
-0.2237761 0.004257679 0.0054079313 0 0 0 3.6274931e-38
-0.20540118 -0.087033644 -0.031310193 0 0 0 3.6274931e-38
-0.19630265 -0.087573238 -0.068368331 0 0 0 3.6274931e-38
-0.16787481 0.0034000091 -0.094097182 0 0 0 3.6274931e-38
-0.18986011 -0.087955311 -0.10562164 0 0 0 3.6274931e-38
-0.1259563 0.0027193427 -0.13405012 0 0 0 3.6274931e-38
-0.11271477 0.002515953 -0.17331438 0 0 0 3.6274931e-38
-0.12007189 0.0025913268 -0.21087545 0 0 0 3.6274931e-38
0.19241095 -0.11079912 -0.51815367 0 0 0 3.6274931e-38
-0.35467041 0.0058300048 -0.43624938 0 0 0 3.6274931e-38
-0.31361341 0.0051222667 -0.47995427 0 0 0 3.6274931e-38
-0.33917069 0.0054196622 -0.50755024 0 0 0 3.6274931e-38
-0.31684875 0.0050017834 -0.54753 0 0 0 3.6274931e-38
-0.21832609 -0.00336821 0.04191443 0 0 0 3.6274931e-38
-0.21590662 -0.0034141988 0.005429015 0 0 0 3.6274931e-38
-0.16994023 -0.096882924 -0.031853668 0 0 0 3.6274931e-38
-0.152879 -0.097957507 -0.069811814 0 0 0 3.6274931e-38
-0.17999339 -0.0040968694 -0.093562029 0 0 0 3.6274931e-38
-0.16441202 -0.09723112 -0.10693433 0 0 0 3.6274931e-38
-0.13407469 -0.0050071217 -0.13355225 0 0 0 3.6274931e-38
-0.096905231 -0.0057143196 -0.17459227 0 0 0 3.6274931e-38
-0.11821771 -0.0053464882 -0.21107017 0 0 0 3.6274931e-38
0.24460411 -0.12316953 -0.52923059 0 0 0 3.6274931e-38
-0.37234271 -0.00087250024 -0.43226334 0 0 0 3.6274931e-38
-0.31762362 -0.0019934401 -0.47900388 0 0 0 3.6274931e-38
-0.3373605 -0.0017146133 -0.50805724 0 0 0 3.6274931e-38
-0.32660365 -0.0019905232 -0.54483807 0 0 0 3.6274931e-38
-0.19446993 -0.010362301 0.042403229 0 0 0 3.6274931e-38
-0.18804693 -0.010504581 0.0055028074 0 0 0 3.6274931e-38
-0.16210532 0.081187755 -0.019407161 0 0 0 3.6274931e-38
-0.18633056 -0.10244134 -0.031612121 0 0 0 3.6274931e-38
-0.16477942 0.081130251 -0.056796499 0 0 0 3.6274931e-38
-0.17724442 -0.1030423 -0.069024459 0 0 0 3.6274931e-38
-0.18212628 -0.010635726 -0.093472838 0 0 0 3.6274931e-38
-0.14618707 -0.011469029 -0.13280545 0 0 0 3.6274931e-38
-0.11099792 -0.012249149 -0.17347412 0 0 0 3.6274931e-38
-0.12830734 -0.011902906 -0.2100966 0 0 0 3.6274931e-38
-0.34516919 -0.007462237 -0.43846384 0 0 0 3.6274931e-38
-0.2963872 -0.0086230412 -0.48423108 0 0 0 3.6274931e-38
-0.3239485 -0.0081075206 -0.51160657 0 0 0 3.6274931e-38
-0.32095468 -0.008243043 -0.54645324 0 0 0 3.6274931e-38
-0.2046473 -0.017731395 0.042199563 0 0 0 3.6274931e-38
-0.16393948 0.073405936 0.017914403 0 0 0 3.6274931e-38
-0.21822023 -0.017380957 0.0054237442 0 0 0 3.6274931e-38
-0.16195273 0.073441371 -0.019407161 0 0 0 3.6274931e-38
-0.18286133 -0.11037628 -0.031672508 0 0 0 3.6274931e-38
-0.13264394 0.073964223 -0.057657052 0 0 0 3.6274931e-38
-0.18231034 -0.018308114 -0.093472838 0 0 0 3.6274931e-38
-0.16233802 -0.018860687 -0.13180973 0 0 0 3.6274931e-38
-0.10919547 -0.020233717 -0.17363384 0 0 0 3.6274931e-38
-0.12053704 -0.019978322 -0.21087545 0 0 0 3.6274931e-38
0.37234282 -0.14932725 -0.55630749 0 0 0 3.6274931e-38
-0.36288762 -0.014080029 -0.43447781 0 0 0 3.6274931e-38
-0.31404161 -0.015420794 -0.47995427 0 0 0 3.6274931e-38
-0.33379233 -0.01500741 -0.50907135 0 0 0 3.6274931e-38
-0.3346076 -0.015053902 -0.54268456 0 0 0 3.6274931e-38
-0.15446854 0.065798797 0.055584509 0 0 0 3.6274931e-38
-0.21085334 -0.025144383 0.042077363 0 0 0 3.6274931e-38
-0.16581535 0.065637976 0.017897438 0 0 0 3.6274931e-38
-0.20243573 -0.025392596 0.0054659112 0 0 0 3.6274931e-38
-0.14383149 0.065949559 -0.019572405 0 0 0 3.6274931e-38
-0.13451719 0.066081569 -0.057603266 0 0 0 3.6274931e-38
-0.17453384 -0.026215337 -0.093829609 0 0 0 3.6274931e-38
-0.17053342 -0.026370071 -0.13131185 0 0 0 3.6274931e-38
-0.1173861 -0.027938157 -0.1729949 0 0 0 3.6274931e-38
-0.10284925 -0.028405018 -0.21262787 0 0 0 3.6274931e-38
0.36579013 -0.15860003 -0.55507672 0 0 0 3.6274931e-38
-0.33773971 -0.021842923 -0.44023541 0 0 0 3.6274931e-38
-0.304533 -0.022898499 -0.48233029 0 0 0 3.6274931e-38
-0.32818997 -0.022296775 -0.51059246 0 0 0 3.6274931e-38
-0.32710552 -0.022397164 -0.54483807 0 0 0 3.6274931e-38
-0.15838313 0.05909105 0.055479731 0 0 0 3.6274931e-38
-0.22704315 -0.031108715 0.041751496 0 0 0 3.6274931e-38
-0.1877296 0.058767326 0.017710831 0 0 0 3.6274931e-38
-0.21463156 -0.031513721 0.0054342858 0 0 0 3.6274931e-38
-0.16974425 0.05896572 -0.019333718 0 0 0 3.6274931e-38
-0.12443662 0.059465513 -0.057872191 0 0 0 3.6274931e-38
-0.1887176 -0.032359339 -0.093205266 0 0 0 3.6274931e-38
-0.17472911 -0.032852516 -0.13106292 0 0 0 3.6274931e-38
-0.13951492 -0.03400223 -0.1712378 0 0 0 3.6274931e-38
-0.12693453 -0.034450501 -0.21029131 0 0 0 3.6274931e-38
0.35931134 -0.1664477 -0.55384594 0 0 0 3.6274931e-38
-0.34182882 -0.027802274 -0.43934962 0 0 0 3.6274931e-38
-0.29307687 -0.029473476 -0.48518151 0 0 0 3.6274931e-38
-0.31871378 -0.028732754 -0.51312768 0 0 0 3.6274931e-38
-0.33884859 -0.028137065 -0.5416078 0 0 0 3.6274931e-38
-0.21438169 -0.039085351 0.078584485 0 0 0 3.6274931e-38
-0.15031457 0.051390074 0.055689286 0 0 0 3.6274931e-38
-0.23129845 -0.038471252 0.041670032 0 0 0 3.6274931e-38
-0.17366004 0.051218122 0.01782958 0 0 0 3.6274931e-38
-0.21289325 -0.039139383 0.0054395567 0 0 0 3.6274931e-38
-0.13967538 0.051468436 -0.019609127 0 0 0 3.6274931e-38
-0.13236094 0.051522307 -0.057657052 0 0 0 3.6274931e-38
-0.177001 -0.040442318 -0.093740411 0 0 0 3.6274931e-38
-0.18496871 -0.040189624 -0.13044059 0 0 0 3.6274931e-38
-0.13779259 -0.041902997 -0.17139754 0 0 0 3.6274931e-38
0.35074806 -0.17547584 -0.55220497 0 0 0 3.6274931e-38
-0.31478798 -0.035885938 -0.44555011 0 0 0 3.6274931e-38
-0.24479342 -0.038513713 -0.49706155 0 0 0 3.6274931e-38
-0.30929649 -0.036258347 -0.51566291 0 0 0 3.6274931e-38
-0.32947135 -0.035587661 -0.54429972 0 0 0 3.6274931e-38
-0.21067572 -0.046798974 0.078736782 0 0 0 3.6274931e-38
-0.18825817 0.043460116 0.054693896 0 0 0 3.6274931e-38
-0.21160412 -0.046761863 0.042077363 0 0 0 3.6274931e-38
-0.20361614 0.04340329 0.017575115 0 0 0 3.6274931e-38
-0.19519591 -0.04741773 0.0054869945 0 0 0 3.6274931e-38
-0.16563082 0.043543842 -0.019370439 0 0 0 3.6274931e-38
-0.15430951 0.043585733 -0.05706542 0 0 0 3.6274931e-38
-0.19725847 -0.047335289 -0.092848495 0 0 0 3.6274931e-38
-0.18924999 -0.047691874 -0.13019165 0 0 0 3.6274931e-38
-0.15402746 -0.049100392 -0.17011964 0 0 0 3.6274931e-38
0.35190678 -0.18526426 -0.55261517 0 0 0 3.6274931e-38
-0.24490786 -0.045892127 -0.46149427 0 0 0 3.6274931e-38
-0.21596193 -0.047127739 -0.50418961 0 0 0 3.6274931e-38
-0.23611617 -0.046423808 -0.53493053 0 0 0 3.6274931e-38
-0.29510283 -0.044116683 -0.55399048 0 0 0 3.6274931e-38
-0.25087929 -0.051563576 0.077213831 0 0 0 3.6274931e-38
-0.15225673 0.036922839 0.055636898 0 0 0 3.6274931e-38
-0.23384857 -0.052297913 0.0416293 0 0 0 3.6274931e-38
-0.1936028 0.036899745 0.017659938 0 0 0 3.6274931e-38
-0.19746566 -0.053866707 0.0054817237 0 0 0 3.6274931e-38
-0.17161655 0.036912028 -0.019315358 0 0 0 3.6274931e-38
-0.14229965 0.0369284 -0.057388127 0 0 0 3.6274931e-38
-0.1715796 -0.054982878 -0.094007991 0 0 0 3.6274931e-38
-0.16758537 -0.055191964 -0.13156079 0 0 0 3.6274931e-38
-0.14633751 -0.056108519 -0.17075859 0 0 0 3.6274931e-38
-0.22568917 -0.053115696 -0.46592319 0 0 0 3.6274931e-38
-0.20846891 -0.053934425 -0.5060904 0 0 0 3.6274931e-38
-0.23831701 -0.052746445 -0.53442353 0 0 0 3.6274931e-38
-0.27804422 -0.051090807 -0.55883592 0 0 0 3.6274931e-38
-0.20529628 -0.061132193 0.078965224 0 0 0 3.6274931e-38
-0.23418498 -0.059780449 0.0416293 0 0 0 3.6274931e-38
-0.21161175 0.02932502 0.017507257 0 0 0 3.6274931e-38
-0.187819 -0.061949983 0.0055080783 0 0 0 3.6274931e-38
-0.20762467 0.029312633 -0.018984867 0 0 0 3.6274931e-38
-0.16630077 0.029184254 -0.056742713 0 0 0 3.6274931e-38
-0.151968 -0.063627504 -0.094899908 0 0 0 3.6274931e-38
-0.15198135 -0.063664019 -0.13255651 0 0 0 3.6274931e-38
-0.17058563 -0.062793173 -0.16884175 0 0 0 3.6274931e-38
-0.19096112 -0.062276967 -0.47389525 0 0 0 3.6274931e-38
-0.20104909 -0.061875224 -0.50799119 0 0 0 3.6274931e-38
-0.2058022 -0.061760172 -0.54304326 0 0 0 3.6274931e-38
-0.23219895 -0.060588203 -0.57175696 0 0 0 3.6274931e-38
-0.24957752 -0.066503271 0.077289976 0 0 0 3.6274931e-38
-0.2365458 -0.067160919 0.041588563 0 0 0 3.6274931e-38
-0.21364903 0.021773975 0.017490294 0 0 0 3.6274931e-38
-0.18219876 -0.069903575 0.0055238907 0 0 0 3.6274931e-38
-0.18366361 0.021570917 -0.019205194 0 0 0 3.6274931e-38
-0.14634657 0.021318208 -0.057280559 0 0 0 3.6274931e-38
-0.17629218 -0.070201643 -0.093829609 0 0 0 3.6274931e-38
-0.17428946 -0.070339479 -0.13118739 0 0 0 3.6274931e-38
-0.19523025 -0.069719143 -0.47300947 0 0 0 3.6274931e-38
-0.19948053 -0.06957633 -0.50846642 0 0 0 3.6274931e-38
-0.19844484 -0.069737904 -0.54507142 0 0 0 3.6274931e-38
-0.19986296 -0.069738545 -0.58090937 0 0 0 3.6274931e-38
-0.23887587 -0.073458999 0.041547831 0 0 0 3.6274931e-38
-0.20170403 0.01517752 0.01759208 0 0 0 3.6274931e-38
-0.18853235 -0.076158188 0.0055080783 0 0 0 3.6274931e-38
-0.19371748 0.015098343 -0.01911339 0 0 0 3.6274931e-38
-0.18038845 0.014966201 -0.05636622 0 0 0 3.6274931e-38
-0.16665959 -0.077330902 -0.094275564 0 0 0 3.6274931e-38
-0.16865325 -0.077260904 -0.13156079 0 0 0 3.6274931e-38
-0.18778157 -0.0766735 -0.47478104 0 0 0 3.6274931e-38
-0.19012213 -0.076620489 -0.51084244 0 0 0 3.6274931e-38
-0.20651388 -0.075845979 -0.54304326 0 0 0 3.6274931e-38
-0.19635773 -0.076466478 -0.58198613 0 0 0 3.6274931e-38
-0.2093451 -0.082638554 0.042158831 0 0 0 3.6274931e-38
-0.21379185 0.0077396464 0.017490294 0 0 0 3.6274931e-38
-0.17697597 -0.084493034 0.0055397036 0 0 0 3.6274931e-38
-0.18580818 0.0073596444 -0.019186834 0 0 0 3.6274931e-38
-0.16448593 0.0070701018 -0.056796499 0 0 0 3.6274931e-38
-0.19501448 -0.083459578 -0.093026884 0 0 0 3.6274931e-38
-0.19897437 -0.083269075 -0.12969379 0 0 0 3.6274931e-38
-0.1843133 -0.084548712 -0.47566682 0 0 0 3.6274931e-38
-0.19442677 -0.084039874 -0.50989199 0 0 0 3.6274931e-38
-0.18375921 -0.084763728 -0.54912776 0 0 0 3.6274931e-38
-0.18332219 -0.084862195 -0.58575475 0 0 0 3.6274931e-38
-0.19455123 -0.00015062466 0.05453673 0 0 0 3.6274931e-38
-0.2139082 0.00018319488 0.017490294 0 0 0 3.6274931e-38
-0.19938993 -0.090844959 0.0054817237 0 0 0 3.6274931e-38
-0.19192505 -0.00019591674 -0.019131752 0 0 0 3.6274931e-38
-0.18659401 -0.00028785318 -0.056204867 0 0 0 3.6274931e-38
-0.17153358 -0.092543349 -0.094097182 0 0 0 3.6274931e-38
-0.16953802 -0.092701912 -0.13156079 0 0 0 3.6274931e-38
-0.14972758 -0.094356999 -0.48363888 0 0 0 3.6274931e-38
-0.17936707 -0.092616573 -0.51369363 0 0 0 3.6274931e-38
-0.18614602 -0.092311293 -0.5486207 0 0 0 3.6274931e-38
-0.18377829 -0.092529684 -0.58575475 0 0 0 3.6274931e-38
-0.19869447 -0.0076939426 0.054431953 0 0 0 3.6274931e-38
-0.19205785 -0.0078327283 0.017676901 0 0 0 3.6274931e-38
-0.15795541 -0.10116315 0.0055924123 0 0 0 3.6274931e-38
-0.20006871 -0.0076652057 -0.019058309 0 0 0 3.6274931e-38
-0.18274236 -0.0080275349 -0.056312438 0 0 0 3.6274931e-38
-0.15606713 -0.10128522 -0.094810717 0 0 0 3.6274931e-38
0.14950418 -0.1215928 -0.55184436 0 0 0 3.6274931e-38
-0.18566751 -0.099920988 -0.51226801 0 0 0 3.6274931e-38
-0.17311525 -0.10084634 -0.55217004 0 0 0 3.6274931e-38
-0.16119695 -0.10169473 -0.5922153 0 0 0 3.6274931e-38
-0.20483756 -0.014074039 0.054274786 0 0 0 3.6274931e-38
-0.22419477 -0.013608396 0.017405471 0 0 0 3.6274931e-38
-0.16238689 -0.10754441 0.0055818707 0 0 0 3.6274931e-38
-0.21221137 -0.013896659 -0.018948145 0 0 0 3.6274931e-38
-0.18888617 -0.014457751 -0.056151085 0 0 0 3.6274931e-38
-0.15850163 -0.10780786 -0.094721526 0 0 0 3.6274931e-38
0.22294021 -0.13424098 -0.56867433 0 0 0 3.6274931e-38
-0.16284513 -0.10806899 -0.51797044 0 0 0 3.6274931e-38
-0.16390371 -0.10810801 -0.55470526 0 0 0 3.6274931e-38
-0.19046497 -0.10637178 -0.58413965 0 0 0 3.6274931e-38
-0.19703984 -0.021884788 0.054484341 0 0 0 3.6274931e-38
-0.1724112 -0.022567559 0.017846545 0 0 0 3.6274931e-38
-0.18441916 -0.022234667 -0.019205194 0 0 0 3.6274931e-38
-0.1850872 -0.022216141 -0.056258652 0 0 0 3.6274931e-38
0.29038763 -0.1482801 -0.58417553 0 0 0 3.6274931e-38
-0.22124481 -0.028749675 0.053855676 0 0 0 3.6274931e-38
-0.20462203 -0.029271483 0.017575115 0 0 0 3.6274931e-38
-0.22462416 -0.028643593 -0.018837981 0 0 0 3.6274931e-38
-0.20529652 -0.029250309 -0.055720806 0 0 0 3.6274931e-38
0.3149786 -0.15958977 -0.58993316 0 0 0 3.6274931e-38
-0.20347452 -0.035824135 0.054327175 0 0 0 3.6274931e-38
-0.17485547 -0.036812529 0.01782958 0 0 0 3.6274931e-38
-0.20085192 -0.035914712 -0.019058309 0 0 0 3.6274931e-38
-0.18752813 -0.03637486 -0.056204867 0 0 0 3.6274931e-38
-0.22772503 -0.042502135 0.05369851 0 0 0 3.6274931e-38
-0.20111561 -0.043518782 0.017609045 0 0 0 3.6274931e-38
-0.21511769 -0.042983823 -0.018929785 0 0 0 3.6274931e-38
-0.19779563 -0.043645628 -0.055935945 0 0 0 3.6274931e-38
-0.24200845 -0.049421616 0.053331789 0 0 0 3.6274931e-38
-0.19942188 -0.051205032 0.017626008 0 0 0 3.6274931e-38
-0.21741819 -0.05045139 -0.018911423 0 0 0 3.6274931e-38
-0.18212032 -0.051929578 -0.05636622 0 0 0 3.6274931e-38
-0.21632123 -0.056978732 0.054012842 0 0 0 3.6274931e-38
-0.18771791 -0.058266602 0.017727794 0 0 0 3.6274931e-38
-0.19372439 -0.057996154 -0.019131752 0 0 0 3.6274931e-38
-0.15843916 -0.059584878 -0.057011638 0 0 0 3.6274931e-38
-0.23664427 -0.063553005 0.053488955 0 0 0 3.6274931e-38
-0.19007397 -0.065820888 0.017710831 0 0 0 3.6274931e-38
-0.21805263 -0.064458393 -0.018911423 0 0 0 3.6274931e-38
-0.18076873 -0.066274054 -0.056420006 0 0 0 3.6274931e-38
