# .PCD v0.7 - Point Cloud Data file format
VERSION 0.7
FIELDS x y z normal_x normal_y normal_z curvature
SIZE 4 4 4 4 4 4 4
TYPE F F F F F F F
COUNT 1 1 1 1 1 1 1
WIDTH 889
HEIGHT 1
VIEWPOINT 0 0 0 1 0 0 0
POINTS 889
DATA ascii
-0.23090935 0.69612694 -0.18414286 0 0 0 1.220031e-37
-0.17115879 0.82248449 -0.27628508 0 0 0 1.220031e-37
-0.22394061 0.71105862 -0.35361907 0 0 0 1.220031e-37
-0.26011515 0.63455534 -0.43027946 0 0 0 1.220031e-37
-0.22980571 0.65798855 -0.182827 0 0 0 1.220031e-37
-0.19968772 0.72108126 -0.27042347 0 0 0 1.220031e-37
-0.20814633 0.70355511 -0.35361907 0 0 0 1.220031e-37
-0.24631667 0.62358999 -0.42991373 0 0 0 1.220031e-37
-0.21643257 0.6515789 -0.182827 0 0 0 1.220031e-37
-0.20256829 0.6803894 -0.26828173 0 0 0 1.220031e-37
-0.19635987 0.6934824 -0.3533234 0 0 0 1.220031e-37
-0.22959733 0.62441111 -0.43064517 0 0 0 1.220031e-37
-0.41277695 0.71781254 -0.57045031 0 0 0 1.220031e-37
-0.20522213 0.63505983 -0.18243998 0 0 0 1.220031e-37
-0.19735599 0.6512537 -0.26692903 0 0 0 1.220031e-37
-0.17888713 0.689466 -0.35361907 0 0 0 1.220031e-37
-0.2045486 0.63663483 -0.43265668 0 0 0 1.220031e-37
-0.39170337 0.72314024 -0.48867613 0 0 0 1.220031e-37
-0.41903472 0.65998125 -0.56370223 0 0 0 1.220031e-37
-0.3948828 0.71579313 -0.65425754 0 0 0 1.220031e-37
-0.19058633 0.6256938 -0.18236257 0 0 0 1.220031e-37
-0.18617606 0.63468838 -0.26636541 0 0 0 1.220031e-37
-0.1596601 0.68896055 -0.35421041 0 0 0 1.220031e-37
-0.35516346 0.76360941 -0.40971106 0 0 0 1.220031e-37
-0.19253397 0.62190723 -0.43192524 0 0 0 1.220031e-37
-0.38303423 0.69984579 -0.4868196 0 0 0 1.220031e-37
-0.39070332 0.68230057 -0.56755829 0 0 0 1.220031e-37
-0.38144994 0.70347023 -0.65343112 0 0 0 1.220031e-37
-0.1759913 0.61627674 -0.18228517 0 0 0 1.220031e-37
-0.17243314 0.62346745 -0.26613998 0 0 0 1.220031e-37
-0.14306259 0.68300915 -0.35435826 0 0 0 1.220031e-37
-0.36251354 0.70372152 -0.40474176 0 0 0 1.220031e-37
-0.16116762 0.64642 -0.43521678 0 0 0 1.220031e-37
-0.371297 0.68382597 -0.4857882 0 0 0 1.220031e-37
-0.37501311 0.67540789 -0.56755829 0 0 0 1.220031e-37
-0.37768281 0.66936064 -0.64929897 0 0 0 1.220031e-37
-0.15561366 0.62400579 -0.18290439 0 0 0 1.220031e-37
-0.16273379 0.60973024 -0.26568907 0 0 0 1.220031e-37
-0.1198194 0.69596052 -0.35598442 0 0 0 1.220031e-37
-0.35385907 0.68680668 -0.40371361 0 0 0 1.220031e-37
-0.14960909 0.63622999 -0.43485105 0 0 0 1.220031e-37
-0.36026943 0.67240858 -0.48516938 0 0 0 1.220031e-37
-0.35754693 0.67852354 -0.56876326 0 0 0 1.220031e-37
-0.36024463 0.67246389 -0.65067637 0 0 0 1.220031e-37
-0.14013886 0.61625195 -0.18290439 0 0 0 1.220031e-37
-0.14102674 0.61448812 -0.26647815 0 0 0 1.220031e-37
-0.090630531 0.71479893 -0.35820192 0 0 0 1.220031e-37
-0.33570123 0.68523121 -0.40422767 0 0 0 1.220031e-37
-0.12334466 0.64980221 -0.43704543 0 0 0 1.220031e-37
-0.34543157 0.66359043 -0.48496309 0 0 0 1.220031e-37
-0.34349918 0.66788769 -0.56828129 0 0 0 1.220031e-37
-0.33240557 0.69256067 -0.65480852 0 0 0 1.220031e-37
-0.12056828 0.62203693 -0.18344623 0 0 0 1.220031e-37
-0.08339572 0.69550037 -0.35716709 0 0 0 1.220031e-37
-0.32471061 0.67370987 -0.40371361 0 0 0 1.220031e-37
-0.10008693 0.66259623 -0.43905693 0 0 0 1.220031e-37
-0.33204031 0.65754414 -0.48496309 0 0 0 1.220031e-37
-0.32845473 0.665452 -0.56876326 0 0 0 1.220031e-37
-0.30910718 0.70812321 -0.65811419 0 0 0 1.220031e-37
-0.10692215 0.61059713 -0.18329142 0 0 0 1.220031e-37
-0.062206507 0.69813442 -0.3580541 0 0 0 1.220031e-37
-0.30407536 0.67744637 -0.40474176 0 0 0 1.220031e-37
-0.082655907 0.65818453 -0.43942267 0 0 0 1.220031e-37
-0.31064439 0.66309834 -0.48640704 0 0 0 1.220031e-37
-0.29877639 0.68902016 -0.5728603 0 0 0 1.220031e-37
-0.29249835 0.70273256 -0.65838969 0 0 0 1.220031e-37
-0.25134706 0.75039721 -0.10077459 0 0 0 1.220031e-37
-0.021746874 0.73788452 -0.36204562 0 0 0 1.220031e-37
-0.28840363 0.67023611 -0.40474176 0 0 0 1.220031e-37
-0.059744358 0.66431952 -0.44088557 0 0 0 1.220031e-37
-0.28751254 0.67216396 -0.48826358 0 0 0 1.220031e-37
-0.28389537 0.67998886 -0.57261932 0 0 0 1.220031e-37
-0.28753984 0.67210484 -0.65480852 0 0 0 1.220031e-37
-0.25880194 0.69874573 -0.099723987 0 0 0 1.220031e-37
0.003847599 0.7538209 -0.36396745 0 0 0 1.220031e-37
-0.2775172 0.6585927 -0.40422767 0 0 0 1.220031e-37
-0.042674065 0.66444206 -0.44161704 0 0 0 1.220031e-37
-0.28501999 0.64249516 -0.48558193 0 0 0 1.220031e-37
-0.2796793 0.65395403 -0.56996828 0 0 0 1.220031e-37
-0.27244842 0.66946745 -0.65535945 0 0 0 1.220031e-37
-0.2481606 0.68051434 -0.099471837 0 0 0 1.220031e-37
0.023506641 0.75254488 -0.36455879 0 0 0 1.220031e-37
-0.25852108 0.65849733 -0.4049131 0 0 0 1.220031e-37
-0.021495819 0.6668539 -0.44271421 0 0 0 1.220031e-37
-0.26270032 0.64961576 -0.48723218 0 0 0 1.220031e-37
-0.25902176 0.65743351 -0.57141429 0 0 0 1.220031e-37
-0.26271009 0.64959478 -0.65343112 0 0 0 1.220031e-37
-0.22904611 0.68032408 -0.099639937 0 0 0 1.220031e-37
0.050657272 0.76528311 -0.3663328 0 0 0 1.220031e-37
-0.24291897 0.65112066 -0.4049131 0 0 0 1.220031e-37
0.020244122 0.70788383 -0.4478344 0 0 0 1.220031e-37
-0.25822783 0.61889505 -0.48455054 0 0 0 1.220031e-37
-0.24938703 0.63750505 -0.5697273 0 0 0 1.220031e-37
-0.25054073 0.63507652 -0.65232921 0 0 0 1.220031e-37
-0.22251201 0.65948439 -0.099303737 0 0 0 1.220031e-37
0.075638294 0.77910566 -0.36810681 0 0 0 1.220031e-37
-0.22612476 0.6519413 -0.40559852 0 0 0 1.220031e-37
0.049718618 0.73055601 -0.45094311 0 0 0 1.220031e-37
-0.23724413 0.62872267 -0.48640704 0 0 0 1.220031e-37
-0.23350549 0.63652897 -0.57045031 0 0 0 1.220031e-37
-0.23552847 0.63230562 -0.65288013 0 0 0 1.220031e-37
-0.2051661 0.65557623 -0.099387787 0 0 0 1.220031e-37
-0.21141434 0.64265156 -0.40542719 0 0 0 1.220031e-37
0.10052609 0.78692722 -0.45770907 0 0 0 1.220031e-37
-0.22954369 0.60514879 -0.48455054 0 0 0 1.220031e-37
-0.22144079 0.62191105 -0.56948626 0 0 0 1.220031e-37
-0.21743608 0.63019514 -0.65370661 0 0 0 1.220031e-37
-0.16193986 0.70463991 -0.015723573 0 0 0 1.220031e-37
-0.1895752 0.64800406 -0.099387787 0 0 0 1.220031e-37
-0.18975377 0.64763832 -0.40662667 0 0 0 1.220031e-37
-0.20628619 0.61375713 -0.48640704 0 0 0 1.220031e-37
-0.20597315 0.61439848 -0.56948626 0 0 0 1.220031e-37
-0.20454407 0.61732721 -0.65288013 0 0 0 1.220031e-37
-0.40661728 0.66902828 -0.72987372 0 0 0 1.220031e-37
-0.42202616 0.63338137 -0.80527818 0 0 0 1.220031e-37
-0.15283394 0.68904352 -0.015690761 0 0 0 1.220031e-37
-0.17976379 0.63429117 -0.099219695 0 0 0 1.220031e-37
-0.16761899 0.65898371 -0.40834022 0 0 0 1.220031e-37
-0.19041824 0.61262894 -0.48702589 0 0 0 1.220031e-37
-0.18835568 0.61682224 -0.57069129 0 0 0 1.220031e-37
-0.18430471 0.62505865 -0.65508395 0 0 0 1.220031e-37
-0.39955616 0.64869738 -0.72739643 0 0 0 1.220031e-37
-0.40635574 0.63298893 -0.80630881 0 0 0 1.220031e-37
-0.4153018 0.61258698 -0.88353115 0 0 0 1.220031e-37
-0.43642926 0.56420708 -0.95343554 0 0 0 1.220031e-37
-0.13712072 0.68127918 -0.015690761 0 0 0 1.220031e-37
-0.1606946 0.63379002 -0.099387787 0 0 0 1.220031e-37
-0.15378785 0.64770412 -0.40799752 0 0 0 1.220031e-37
-0.16790843 0.61925793 -0.48867613 0 0 0 1.220031e-37
-0.16584468 0.62341547 -0.57261932 0 0 0 1.220031e-37
-0.17499137 0.60499001 -0.65315562 0 0 0 1.220031e-37
-0.39038968 0.62738466 -0.72491914 0 0 0 1.220031e-37
-0.40440941 0.5955286 -0.8004685 0 0 0 1.220031e-37
-0.4149785 0.57166338 -0.87636638 0 0 0 1.220031e-37
-0.42830575 0.54137516 -0.94974327 0 0 0 1.220031e-37
-0.14339256 0.62963057 -0.099471837 0 0 0 1.220031e-37
-0.13108563 0.65419626 -0.40936834 0 0 0 1.220031e-37
-0.14532256 0.6257782 -0.49032634 0 0 0 1.220031e-37
-0.15303969 0.61037397 -0.57189631 0 0 0 1.220031e-37
-0.15160036 0.61324739 -0.65563494 0 0 0 1.220031e-37
-0.37974095 0.60966921 -0.7230612 0 0 0 1.220031e-37
-0.39064598 0.58508968 -0.79978138 0 0 0 1.220031e-37
-0.40209949 0.55948162 -0.87523508 0 0 0 1.220031e-37
-0.41313183 0.53462124 -0.94974327 0 0 0 1.220031e-37
-0.12740541 0.62830448 -0.099597909 0 0 0 1.220031e-37
-0.2971158 0.75801945 -0.32656616 0 0 0 1.220031e-37
-0.1123364 0.65814877 -0.41039649 0 0 0 1.220031e-37
-0.1212914 0.64041328 -0.49280173 0 0 0 1.220031e-37
-0.12728834 0.62853622 -0.5752703 0 0 0 1.220031e-37
-0.13836813 0.60659218 -0.65563494 0 0 0 1.220031e-37
-0.35677075 0.62534475 -0.72677714 0 0 0 1.220031e-37
-0.35805941 0.62229061 -0.80802655 0 0 0 1.220031e-37
-0.36319351 0.61090803 -0.8873021 0 0 0 1.220031e-37
-0.39451158 0.54127884 -0.95261508 0 0 0 1.220031e-37
-0.10283709 0.6382637 -0.10001816 0 0 0 1.220031e-37
-0.28445649 0.74352026 -0.32602119 0 0 0 1.220031e-37
-0.087690115 0.66799116 -0.41211003 0 0 0 1.220031e-37
-0.10846591 0.62721634 -0.49218288 0 0 0 1.220031e-37
-0.11540246 0.61360264 -0.57430631 0 0 0 1.220031e-37
-0.11396384 0.61642599 -0.65838969 0 0 0 1.220031e-37
-0.31590235 0.67407179 -0.73637664 0 0 0 1.220031e-37
-0.32788968 0.6475544 -0.81421047 0 0 0 1.220031e-37
-0.32578433 0.65217686 -0.89748365 0 0 0 1.220031e-37
-0.36960173 0.55577803 -0.95753813 0 0 0 1.220031e-37
-0.27020991 0.73261213 -0.32574874 0 0 0 1.220031e-37
-0.061120749 0.68125391 -0.4141663 0 0 0 1.220031e-37
-0.072058201 0.65998077 -0.49692729 0 0 0 1.220031e-37
-0.078177929 0.64807844 -0.58009034 0 0 0 1.220031e-37
-0.087647676 0.62966013 -0.66169542 0 0 0 1.220031e-37
-0.30189395 0.66331482 -0.73575735 0 0 0 1.220031e-37
-0.31644344 0.63148165 -0.81249273 0 0 0 1.220031e-37
-0.3102051 0.64504671 -0.89748365 0 0 0 1.220031e-37
-0.33474588 0.59149075 -0.96738428 0 0 0 1.220031e-37
-0.22944808 0.78489733 -0.073006794 0 0 0 1.220031e-37
-0.25553513 0.72863102 -0.15668289 0 0 0 1.220031e-37
-0.25324512 0.7335701 -0.32629368 0 0 0 1.220031e-37
-0.040341854 0.68846846 -0.41553715 0 0 0 1.220031e-37
-0.05959487 0.65130949 -0.49672103 0 0 0 1.220031e-37
-0.068490267 0.63414145 -0.57912636 0 0 0 1.220031e-37
-0.067073822 0.63687515 -0.66389924 0 0 0 1.220031e-37
-0.29182839 0.64996147 -0.73451871 0 0 0 1.220031e-37
-0.29900897 0.63428164 -0.81421047 0 0 0 1.220031e-37
-0.30265605 0.62641621 -0.894844 0 0 0 1.220031e-37
-0.32569861 0.57653189 -0.96533298 0 0 0 1.220031e-37
-0.25153399 0.69591045 -0.071648106 0 0 0 1.220031e-37
-0.25238752 0.69408655 -0.15569872 0 0 0 1.220031e-37
-0.23483014 0.73159504 -0.32670242 0 0 0 1.220031e-37
-0.020015478 0.68912125 -0.41639394 0 0 0 1.220031e-37
-0.032039165 0.66612196 -0.49940264 0 0 0 1.220031e-37
-0.0345819 0.66125822 -0.58394635 0 0 0 1.220031e-37
-0.026772738 0.67619562 -0.67133713 0 0 0 1.220031e-37
-0.28212154 0.63018036 -0.73235106 0 0 0 1.220031e-37
-0.29101396 0.61099386 -0.81111854 0 0 0 1.220031e-37
-0.29133523 0.61030769 -0.89295852 0 0 0 1.220031e-37
-0.31371653 0.56231117 -0.96369195 0 0 0 1.220031e-37
-0.23921251 0.68127584 -0.071527332 0 0 0 1.220031e-37
-0.24092555 0.67765093 -0.15537065 0 0 0 1.220031e-37
-0.22578073 0.70969868 -0.32561249 0 0 0 1.220031e-37
0.0049936771 0.69849491 -0.41810748 0 0 0 1.220031e-37
-0.013626337 0.66319418 -0.50002152 0 0 0 1.220031e-37
-0.010634661 0.66886568 -0.58611536 0 0 0 1.220031e-37
0.0046038628 0.69775581 -0.67602021 0 0 0 1.220031e-37
-0.26071334 0.63539553 -0.73451871 0 0 0 1.220031e-37
-0.27053428 0.61442471 -0.81317979 0 0 0 1.220031e-37
-0.27339172 0.60837889 -0.89408982 0 0 0 1.220031e-37
-0.28424656 0.58522272 -0.97066635 0 0 0 1.220031e-37
-0.24296832 0.6387887 -0.07092347 0 0 0 1.220031e-37
-0.24468541 0.63518429 -0.1540584 0 0 0 1.220031e-37
-0.2246964 0.67714119 -0.23961774 0 0 0 1.220031e-37
-0.20537972 0.71768713 -0.32670242 0 0 0 1.220031e-37
0.022233486 0.69838572 -0.4187929 0 0 0 1.220031e-37
0.013766527 0.68245459 -0.50311571 0 0 0 1.220031e-37
0.064269781 0.77747774 -0.60202146 0 0 0 1.220031e-37
0.066444397 0.78156948 -0.69034499 0 0 0 1.220031e-37
-0.25421023 0.61481285 -0.73204136 0 0 0 1.220031e-37
-0.26492548 0.59213495 -0.81008786 0 0 0 1.220031e-37
-0.26101923 0.60033321 -0.8937127 0 0 0 1.220031e-37
-0.26941776 0.58251905 -0.97148687 0 0 0 1.220031e-37
-0.22310519 0.64036608 -0.071074441 0 0 0 1.220031e-37
-0.2222383 0.64216852 -0.15458329 0 0 0 1.220031e-37
-0.21075773 0.66603994 -0.23941578 0 0 0 1.220031e-37
-0.19302034 0.70292234 -0.32615745 0 0 0 1.220031e-37
0.062462091 0.7356391 -0.42324814 0 0 0 1.220031e-37
0.085858107 0.77927256 -0.51549244 0 0 0 1.220031e-37
0.097193718 0.80041313 -0.60635948 0 0 0 1.220031e-37
0.077814817 0.76427174 -0.68896765 0 0 0 1.220031e-37
-0.23791194 0.60920143 -0.73235106 0 0 0 1.220031e-37
-0.24358845 0.59721088 -0.81249273 0 0 0 1.220031e-37
-0.24307632 0.59827614 -0.894844 0 0 0 1.220031e-37
-0.24476051 0.59458685 -0.97599965 0 0 0 1.220031e-37
-0.21542954 0.6166687 -0.070802703 0 0 0 1.220031e-37
-0.21193385 0.62386942 -0.15418962 0 0 0 1.220031e-37
-0.20734072 0.6333313 -0.23800211 0 0 0 1.220031e-37
-0.17812729 0.69351006 -0.32602119 0 0 0 1.220031e-37
-0.40073133 0.70619678 -0.45913601 0 0 0 1.220031e-37
0.10284686 0.77238226 -0.51569873 0 0 0 1.220031e-37
0.088147402 0.74520731 -0.68731475 0 0 0 1.220031e-37
-0.22335362 0.59997177 -0.73204136 0 0 0 1.220031e-37
-0.23165345 0.58269024 -0.81111854 0 0 0 1.220031e-37
-0.22254801 0.60144472 -0.89710653 0 0 0 1.220031e-37
-0.2405076 0.56426859 -0.97066635 0 0 0 1.220031e-37
-0.20394444 0.60662127 -0.070742317 0 0 0 1.220031e-37
-0.18724656 0.64074516 -0.15504259 0 0 0 1.220031e-37
-0.18789959 0.6394105 -0.23870894 0 0 0 1.220031e-37
-0.15850377 0.69948387 -0.3269749 0 0 0 1.220031e-37
-0.35406721 0.77652502 -0.38272926 0 0 0 1.220031e-37
-0.38004506 0.7167449 -0.46088845 0 0 0 1.220031e-37
0.097053051 0.72910166 -0.6859374 0 0 0 1.220031e-37
-0.20842576 0.59709215 -0.73266071 0 0 0 1.220031e-37
-0.22198129 0.56920815 -0.8097443 0 0 0 1.220031e-37
-0.21107936 0.59148407 -0.89635235 0 0 0 1.220031e-37
-0.217103 0.57899141 -0.97558939 0 0 0 1.220031e-37
-0.19030404 0.59545898 -0.07068193 0 0 0 1.220031e-37
-0.1841023 0.60801601 -0.15412401 0 0 0 1.220031e-37
-0.18032861 0.61565685 -0.23780015 0 0 0 1.220031e-37
-0.14010143 0.69710779 -0.32738361 0 0 0 1.220031e-37
-0.35812092 0.72388506 -0.37873584 0 0 0 1.220031e-37
-0.36743808 0.70252657 -0.46010959 0 0 0 1.220031e-37
0.10623121 0.7082696 -0.68400902 0 0 0 1.220031e-37
-0.19304919 0.5895319 -0.73266071 0 0 0 1.220031e-37
-0.19536328 0.58466291 -0.81421047 0 0 0 1.220031e-37
-0.18528509 0.60506582 -0.90087748 0 0 0 1.220031e-37
-0.19919181 0.57672834 -0.97682017 0 0 0 1.220031e-37
-0.40959322 0.60462761 -1.0438982 0 0 0 1.220031e-37
-0.39864969 0.62806034 -1.2921062 0 0 0 1.220031e-37
-0.16910696 0.60503769 -0.070953667 0 0 0 1.220031e-37
-0.16643262 0.61041021 -0.15445207 0 0 0 1.220031e-37
-0.15818739 0.62697315 -0.23880991 0 0 0 1.220031e-37
-0.10882187 0.72614145 -0.3301084 0 0 0 1.220031e-37
-0.3421123 0.72334433 -0.37921506 0 0 0 1.220031e-37
-0.35311639 0.69836855 -0.46030432 0 0 0 1.220031e-37
0.13895607 0.73546219 -0.68951857 0 0 0 1.220031e-37
-0.17724967 0.58831358 -0.73358971 0 0 0 1.220031e-37
-0.18573308 0.57109022 -0.81283629 0 0 0 1.220031e-37
-0.17733097 0.5879674 -0.89861494 0 0 0 1.220031e-37
-0.1834569 0.57547998 -0.97805095 0 0 0 1.220031e-37
-0.40985262 0.56848478 -1.0363691 0 0 0 1.220031e-37
-0.3735503 0.64976692 -1.1381094 0 0 0 1.220031e-37
-0.37724566 0.64085436 -1.2169036 0 0 0 1.220031e-37
-0.39006484 0.6116209 -1.2888758 0 0 0 1.220031e-37
-0.14562201 0.61341619 -0.071225405 0 0 0 1.220031e-37
-0.15728879 0.59019279 -0.15399279 0 0 0 1.220031e-37
-0.14628839 0.61208963 -0.238406 0 0 0 1.220031e-37
-0.089390039 0.72534752 -0.33065334 0 0 0 1.220031e-37
-0.33606362 0.69444561 -0.37729821 0 0 0 1.220031e-37
-0.33899701 0.68770599 -0.45991489 0 0 0 1.220031e-37
0.12449026 0.67230606 -0.59430945 0 0 0 1.220031e-37
-0.16013122 0.58417082 -0.734209 0 0 0 1.220031e-37
-0.16249084 0.5792923 -0.81592822 0 0 0 1.220031e-37
-0.15316963 0.59784412 -0.90238589 0 0 0 1.220031e-37
-0.15937114 0.58531952 -0.98215353 0 0 0 1.220031e-37
-0.40016985 0.54920769 -1.0332688 0 0 0 1.220031e-37
-0.35877502 0.64103937 -1.1376342 0 0 0 1.220031e-37
-0.3791393 0.59508371 -1.2057487 0 0 0 1.220031e-37
-0.37857842 0.59594059 -1.286184 0 0 0 1.220031e-37
-0.13199449 0.60205889 -0.071165018 0 0 0 1.220031e-37
-0.1319952 0.60205746 -0.15471452 0 0 0 1.220031e-37
-0.12001872 0.62568092 -0.23961774 0 0 0 1.220031e-37
-0.068130493 0.72802877 -0.33147079 0 0 0 1.220031e-37
-0.32032931 0.68735313 -0.37729821 0 0 0 1.220031e-37
-0.32410884 0.67881107 -0.45972016 0 0 0 1.220031e-37
0.13234305 0.64968777 -0.59238142 0 0 0 1.220031e-37
-0.13229299 0.60110617 -0.73854429 0 0 0 1.220031e-37
-0.13916063 0.58737993 -0.81902015 0 0 0 1.220031e-37
-0.13423777 0.59708881 -0.90389425 0 0 0 1.220031e-37
-0.14492321 0.57583427 -0.98174328 0 0 0 1.220031e-37
-0.37852633 0.55656242 -1.0368119 0 0 0 1.220031e-37
-0.36328769 0.58979464 -1.1257541 0 0 0 1.220031e-37
-0.36536646 0.58462524 -1.2047346 0 0 0 1.220031e-37
-0.36956787 0.57497025 -1.2818769 0 0 0 1.220031e-37
-0.081079006 0.66365099 -0.072342545 0 0 0 1.220031e-37
-0.082005024 0.66184092 -0.1572078 0 0 0 1.220031e-37
-0.03319025 0.75725794 -0.33433181 0 0 0 1.220031e-37
-0.29798698 0.69470644 -0.3785761 0 0 0 1.220031e-37
-0.30180788 0.68615532 -0.46127787 0 0 0 1.220031e-37
0.13417625 0.61671209 -0.58900738 0 0 0 1.220031e-37
-0.12320209 0.58095407 -0.73637664 0 0 0 1.220031e-37
-0.12202525 0.58307409 -0.81970721 0 0 0 1.220031e-37
-0.11528301 0.59625101 -0.9054026 0 0 0 1.220031e-37
-0.1224916 0.58198214 -0.98502529 0 0 0 1.220031e-37
-0.37060189 0.53366518 -1.0328259 0 0 0 1.220031e-37
-0.34955394 0.57926941 -1.1248038 0 0 0 1.220031e-37
-0.35406089 0.56884527 -1.2021993 0 0 0 1.220031e-37
-0.35266769 0.57150364 -1.2829537 0 0 0 1.220031e-37
-0.017677546 0.75377703 -0.33460429 0 0 0 1.220031e-37
-0.28282833 0.69213152 -0.37889558 0 0 0 1.220031e-37
-0.2941817 0.6673193 -0.45991489 0 0 0 1.220031e-37
0.14149952 0.59882116 -0.58756137 0 0 0 1.220031e-37
-0.084717512 0.62338305 -0.74504721 0 0 0 1.220031e-37
-0.099858284 0.59383821 -0.82314271 0 0 0 1.220031e-37
-0.095803499 0.60170221 -0.90804225 0 0 0 1.220031e-37
-0.09948945 0.5943737 -0.98953813 0 0 0 1.220031e-37
-0.32166147 0.60561705 -1.0523132 0 0 0 1.220031e-37
-0.33886981 0.56794453 -1.1233782 0 0 0 1.220031e-37
-0.34826434 0.54701757 -1.197636 0 0 0 1.220031e-37
-0.34602404 0.55148983 -1.2786467 0 0 0 1.220031e-37
-0.22835302 0.76805639 -0.3005859 0 0 0 1.220031e-37
0.013926506 0.77560997 -0.33692038 0 0 0 1.220031e-37
-0.27131081 0.67580748 -0.37809688 0 0 0 1.220031e-37
-0.27770686 0.66187763 -0.46010959 0 0 0 1.220031e-37
0.13801861 0.55730963 -0.58298236 0 0 0 1.220031e-37
-0.075628757 0.60309982 -0.74287957 0 0 0 1.220031e-37
-0.079038143 0.59636736 -0.82520401 0 0 0 1.220031e-37
-0.067719221 0.61812305 -0.91332161 0 0 0 1.220031e-37
-0.079606056 0.59509706 -0.99158943 0 0 0 1.220031e-37
-0.31613719 0.57725763 -1.0469985 0 0 0 1.220031e-37
-0.33016348 0.54677534 -1.1195765 0 0 0 1.220031e-37
-0.33633924 0.53295612 -1.1956078 0 0 0 1.220031e-37
-0.33244109 0.54094315 -1.2775699 0 0 0 1.220031e-37
-0.22466135 0.74048185 -0.21414913 0 0 0 1.220031e-37
-0.22566247 0.73815203 -0.29896784 0 0 0 1.220031e-37
0.040637732 0.7931757 -0.33882773 0 0 0 1.220031e-37
-0.2451725 0.6965971 -0.38049296 0 0 0 1.220031e-37
-0.26432133 0.65561867 -0.46010959 0 0 0 1.220031e-37
0.16404891 0.57205677 -0.58611536 0 0 0 1.220031e-37
-0.032153606 0.65395546 -0.75309843 0 0 0 1.220031e-37
-0.05671072 0.60693455 -0.82863951 0 0 0 1.220031e-37
-0.036231995 0.64599562 -0.92086345 0 0 0 1.220031e-37
-0.052797318 0.61422014 -0.99774325 0 0 0 1.220031e-37
-0.30301738 0.57111979 -1.0469985 0 0 0 1.220031e-37
-0.3130089 0.54947329 -1.1219525 0 0 0 1.220031e-37
-0.31595385 0.54264069 -1.2001712 0 0 0 1.220031e-37
-0.309605 0.55577612 -1.2840304 0 0 0 1.220031e-37
-0.21902776 0.71131468 -0.21307883 0 0 0 1.220031e-37
-0.20634913 0.73786974 -0.29946572 0 0 0 1.220031e-37
-0.23540807 0.67656088 -0.37937477 0 0 0 1.220031e-37
-0.25384521 0.6374712 -0.45894131 0 0 0 1.220031e-37
0.17029166 0.54771805 -0.58394635 0 0 0 1.220031e-37
-0.0027120113 0.67194796 -0.75774336 0 0 0 1.220031e-37
-0.021952868 0.63539267 -0.83585405 0 0 0 1.220031e-37
-0.0023097992 0.67252827 -0.92840534 0 0 0 1.220031e-37
-0.016307116 0.6458869 -1.0071791 0 0 0 1.220031e-37
-0.28940666 0.56038237 -1.0461127 0 0 0 1.220031e-37
-0.3003037 0.53703117 -1.1205269 0 0 0 1.220031e-37
-0.30160534 0.53372765 -1.1996641 0 0 0 1.220031e-37
-0.29685593 0.54336643 -1.2824153 0 0 0 1.220031e-37
-0.21530509 0.67856026 -0.21183015 0 0 0 1.220031e-37
-0.19304109 0.72489929 -0.29909232 0 0 0 1.220031e-37
-0.21113539 0.68708277 -0.38097215 0 0 0 1.220031e-37
-0.23402452 0.63905525 -0.45991489 0 0 0 1.220031e-37
0.19154882 0.54902411 -0.58539236 0 0 0 1.220031e-37
-0.26911116 0.56367445 -1.0487701 0 0 0 1.220031e-37
-0.28011298 0.54032183 -1.1233782 0 0 0 1.220031e-37
-0.27142048 0.55791807 -1.2087909 0 0 0 1.220031e-37
-0.2633729 0.57435036 -1.2942597 0 0 0 1.220031e-37
-0.20794344 0.65950775 -0.21120581 0 0 0 1.220031e-37
-0.18292689 0.71118212 -0.29859444 0 0 0 1.220031e-37
-0.19853711 0.6788187 -0.38081241 0 0 0 1.220031e-37
-0.21811652 0.6380372 -0.46049902 0 0 0 1.220031e-37
0.18730497 0.51229334 -0.58129537 0 0 0 1.220031e-37
-0.25094795 0.56792784 -1.0514274 0 0 0 1.220031e-37
-0.24093175 0.58830881 -1.1381094 0 0 0 1.220031e-37
-0.21883368 0.63352776 -1.2326219 0 0 0 1.220031e-37
-0.15312481 0.76926327 -1.3567114 0 0 0 1.220031e-37
-0.19058895 0.65553856 -0.21138419 0 0 0 1.220031e-37
-0.16887975 0.69993877 -0.29834551 0 0 0 1.220031e-37
-0.17413425 0.68914652 -0.38240978 0 0 0 1.220031e-37
-0.19561887 0.64482975 -0.46205673 0 0 0 1.220031e-37
0.20339036 0.50498581 -0.58153635 0 0 0 1.220031e-37
-0.23482394 0.56227732 -1.0518703 0 0 0 1.220031e-37
-0.21282458 0.6070652 -1.1452374 0 0 0 1.220031e-37
-0.16349554 0.70774841 -1.256453 0 0 0 1.220031e-37
-0.14977384 0.73552608 -1.3486358 0 0 0 1.220031e-37
-0.18292856 0.63177395 -0.21058147 0 0 0 1.220031e-37
-0.15400696 0.69044161 -0.29822105 0 0 0 1.220031e-37
-0.16281676 0.67251444 -0.38161111 0 0 0 1.220031e-37
-0.17831159 0.64079571 -0.46244615 0 0 0 1.220031e-37
0.18242908 0.43647766 -0.57310128 0 0 0 1.220031e-37
-0.20838761 0.57756758 -1.0576279 0 0 0 1.220031e-37
-0.14254808 0.71109676 -1.1756504 0 0 0 1.220031e-37
-0.14429855 0.70696735 -1.2584811 0 0 0 1.220031e-37
-0.14324117 0.70873737 -1.3427136 0 0 0 1.220031e-37
-0.17407203 0.61626482 -0.2101355 0 0 0 1.220031e-37
-0.15116405 0.6623292 -0.29672745 0 0 0 1.220031e-37
-0.14497399 0.67482662 -0.38240978 0 0 0 1.220031e-37
-0.16499281 0.63422441 -0.46244615 0 0 0 1.220031e-37
0.31089354 0.61861706 -0.60009348 0 0 0 1.220031e-37
-0.1944015 0.57283831 -1.0580708 0 0 0 1.220031e-37
-0.14453745 0.67308092 -1.1670967 0 0 0 1.220031e-37
-0.13850522 0.68468809 -1.2539178 0 0 0 1.220031e-37
-0.13142014 0.69860411 -1.3416369 0 0 0 1.220031e-37
-0.15237212 0.62108946 -0.21075985 0 0 0 1.220031e-37
-0.11591291 0.69383907 -0.29946572 0 0 0 1.220031e-37
-0.1257472 0.6741662 -0.38304874 0 0 0 1.220031e-37
-0.13790989 0.6496501 -0.46497744 0 0 0 1.220031e-37
0.34818649 0.64466906 -0.60515451 0 0 0 1.220031e-37
-0.1616652 0.60011387 -1.0669286 0 0 0 1.220031e-37
-0.12888288 0.66528654 -1.1670967 0 0 0 1.220031e-37
-0.12453914 0.67341089 -1.2529037 0 0 0 1.220031e-37
-0.11481023 0.6924839 -1.3421752 0 0 0 1.220031e-37
-0.12970877 0.62759495 -0.21147338 0 0 0 1.220031e-37
-0.096586227 0.69306803 -0.29996356 0 0 0 1.220031e-37
-0.098415375 0.68944216 -0.38512531 0 0 0 1.220031e-37
-0.11965132 0.64716291 -0.4655616 0 0 0 1.220031e-37
0.40244436 0.69750261 -0.61407155 0 0 0 1.220031e-37
-0.12430716 0.63591099 -1.078001 0 0 0 1.220031e-37
-0.11063051 0.66263723 -1.1685224 0 0 0 1.220031e-37
-0.10713959 0.66899729 -1.2539178 0 0 0 1.220031e-37
-0.10082078 0.68114138 -1.3410984 0 0 0 1.220031e-37
-0.11240792 0.62330723 -0.21165176 0 0 0 1.220031e-37
-0.050973654 0.74380064 -0.30407095 0 0 0 1.220031e-37
-0.075465441 0.69569159 -0.3864032 0 0 0 1.220031e-37
-0.094157934 0.65878963 -0.46770346 0 0 0 1.220031e-37
-0.10613346 0.63325596 -1.0793296 0 0 0 1.220031e-37
-0.097659588 0.64952564 -1.1670967 0 0 0 1.220031e-37
-0.097647667 0.64899874 -1.2503685 0 0 0 1.220031e-37
-0.084262371 0.67490292 -1.3416369 0 0 0 1.220031e-37
-0.054694414 0.70298719 -0.3876811 0 0 0 1.220031e-37
-0.068061829 0.67674828 -0.47042945 0 0 0 1.220031e-37
-0.085713387 0.6403389 -1.0828727 0 0 0 1.220031e-37
-0.074554205 0.66171217 -1.1723239 0 0 0 1.220031e-37
-0.073699713 0.66282701 -1.256453 0 0 0 1.220031e-37
-0.061158895 0.6868844 -1.347559 0 0 0 1.220031e-37
-0.26404142 0.71146727 -0.12789969 0 0 0 1.220031e-37
-0.036180973 0.70017433 -0.38816032 0 0 0 1.220031e-37
-0.06063056 0.65276432 -0.46867701 0 0 0 1.220031e-37
-0.074664116 0.62366962 -1.0806583 0 0 0 1.220031e-37
-0.066090107 0.63986063 -1.1685224 0 0 0 1.220031e-37
-0.053633451 0.66336203 -1.2589883 0 0 0 1.220031e-37
-0.053429127 0.66339207 -1.3427136 0 0 0 1.220031e-37
-0.21683478 0.77720308 -0.044377584 0 0 0 1.220031e-37
-0.25981116 0.68524122 -0.12730806 0 0 0 1.220031e-37
-0.0070009232 0.72320461 -0.39087582 0 0 0 1.220031e-37
-0.021495581 0.69523668 -0.47412902 0 0 0 1.220031e-37
-0.056887388 0.62541819 -1.0828727 0 0 0 1.220031e-37
-0.050077915 0.63810349 -1.169948 0 0 0 1.220031e-37
-0.034872293 0.66668892 -1.2620305 0 0 0 1.220031e-37
-0.23493218 0.69732428 -0.043643162 0 0 0 1.220031e-37
-0.25264192 0.65978765 -0.12677021 0 0 0 1.220031e-37
0.014407873 0.72549057 -0.39183426 0 0 0 1.220031e-37
-0.0066876411 0.68522978 -0.47393429 0 0 0 1.220031e-37
-0.030502796 0.6380105 -1.0881875 0 0 0 1.220031e-37
-0.017351866 0.66262245 -1.1789768 0 0 0 1.220031e-37
-0.011127234 0.67389774 -1.2665938 0 0 0 1.220031e-37
-0.23896742 0.6483326 -0.043220866 0 0 0 1.220031e-37
-0.22843814 0.67043924 -0.12730806 0 0 0 1.220031e-37
0.048954248 0.75232792 -0.39502898 0 0 0 1.220031e-37
0.037951946 0.73142719 -0.47997046 0 0 0 1.220031e-37
-0.019552946 0.62118673 -1.085973 0 0 0 1.220031e-37
-0.0062940121 0.6457839 -1.1766008 0 0 0 1.220031e-37
-0.22995281 0.63293743 -0.043129064 0 0 0 1.220031e-37
-0.23233342 0.62797976 -0.12623237 0 0 0 1.220031e-37
0.071087122 0.76086235 -0.39646661 0 0 0 1.220031e-37
0.080667019 0.7785821 -0.48600659 0 0 0 1.220031e-37
0.025000572 0.67257833 -1.1010314 0 0 0 1.220031e-37
-0.22403955 0.60565996 -0.042927098 0 0 0 1.220031e-37
-0.20725179 0.64029741 -0.12682399 0 0 0 1.220031e-37
-0.19105458 0.63408661 -0.043294307 0 0 0 1.220031e-37
-0.20313811 0.60938644 -0.1261248 0 0 0 1.220031e-37
-0.19102407 0.60064983 -0.0430189 0 0 0 1.220031e-37
-0.18461275 0.61365175 -0.12644751 0 0 0 1.220031e-37
-0.16405082 0.61630201 -0.043257587 0 0 0 1.220031e-37
-0.16561246 0.61316395 -0.12666264 0 0 0 1.220031e-37
-0.14232087 0.62108946 -0.043386113 0 0 0 1.220031e-37
-0.15735579 0.59115458 -0.12623237 0 0 0 1.220031e-37
-0.096548557 0.67864132 -0.044047095 0 0 0 1.220031e-37
-0.12252283 0.62732792 -0.1275232 0 0 0 1.220031e-37
0.2076385 -0.30938148 -0.37798029 0 0 0 1.220031e-37
-0.077933311 0.67642736 -0.1292443 0 0 0 1.220031e-37
0.21608615 -0.32322574 -0.37743169 0 0 0 1.220031e-37
0.21118736 -0.35451341 -0.37487161 0 0 0 1.220031e-37
0.22257543 -0.36074138 -0.30276415 0 0 0 1.220031e-37
0.23228598 -0.3480804 -0.37651739 0 0 0 1.220031e-37
0.21614408 -0.3935473 -0.30054665 0 0 0 1.220031e-37
0.23810625 -0.36512852 -0.37560305 0 0 0 1.220031e-37
0.22298551 -0.40895128 -0.29995531 0 0 0 1.220031e-37
0.22808313 -0.42305756 -0.29936397 0 0 0 1.220031e-37
0.23398685 -0.43958139 -0.22747584 0 0 0 1.220031e-37
0.2557869 -0.41186118 -0.3012858 0 0 0 1.220031e-37
0.25053382 -0.4425056 -0.22792673 0 0 0 1.220031e-37
0.27242947 -0.41487265 -0.30187714 0 0 0 1.220031e-37
0.24796557 -0.46600509 -0.2267995 0 0 0 1.220031e-37
0.27868938 -0.42752552 -0.30143365 0 0 0 1.220031e-37
0.21054149 -0.53583884 -0.22240329 0 0 0 1.220031e-37
0.23520136 -0.50516486 -0.29492894 0 0 0 1.220031e-37
0.37912989 -0.32677317 -0.38639206 0 0 0 1.220031e-37
0.22674823 -0.22326303 -0.50947696 0 0 0 1.220031e-37
0.20916724 -0.56042123 -0.22127606 0 0 0 1.220031e-37
0.20124388 -0.57006025 -0.28960693 0 0 0 1.220031e-37
0.34086609 -0.39829803 -0.37907746 0 0 0 1.220031e-37
0.20608521 -0.27688742 -0.42947391 0 0 0 1.220031e-37
0.2331965 -0.24038219 -0.50827193 0 0 0 1.220031e-37
0.23598552 -0.54708886 -0.15287185 0 0 0 1.220031e-37
0.2073307 -0.58211327 -0.22026154 0 0 0 1.220031e-37
0.21201968 -0.57627416 -0.28975475 0 0 0 1.220031e-37
0.22985172 -0.55447769 -0.36152253 0 0 0 1.220031e-37
0.21056366 -0.29262853 -0.42844251 0 0 0 1.220031e-37
0.23066854 -0.2657342 -0.5056209 0 0 0 1.220031e-37
0.25225019 -0.55010128 -0.15318146 0 0 0 1.220031e-37
0.21965241 -0.58964825 -0.22037427 0 0 0 1.220031e-37
0.23324156 -0.57305455 -0.29093742 0 0 0 1.220031e-37
0.24733829 -0.55595183 -0.36243683 0 0 0 1.220031e-37
0.21429777 -0.31284094 -0.42699856 0 0 0 1.220031e-37
0.24885273 -0.26696825 -0.50682592 0 0 0 1.220031e-37
0.24171352 -0.58547902 -0.1518656 0 0 0 1.220031e-37
0.22684956 -0.60337758 -0.2200361 0 0 0 1.220031e-37
0.2239387 -0.60677624 -0.28857207 0 0 0 1.220031e-37
0.22204828 -0.32759356 -0.35350645 0 0 0 1.220031e-37
0.25085163 -0.57436776 -0.36133966 0 0 0 1.220031e-37
0.2251339 -0.32352853 -0.42679226 0 0 0 1.220031e-37
0.25265646 -0.28726864 -0.50513893 0 0 0 1.220031e-37
0.25403523 -0.59314799 -0.15194301 0 0 0 1.220031e-37
0.24166727 -0.60793042 -0.22037427 0 0 0 1.220031e-37
0.24385905 -0.60520434 -0.28960693 0 0 0 1.220031e-37
0.225559 -0.34780431 -0.35230696 0 0 0 1.220031e-37
0.27215528 -0.57138276 -0.36280257 0 0 0 1.220031e-37
0.24801016 -0.31844997 -0.4286488 0 0 0 1.220031e-37
0.27443814 -0.28389621 -0.50706691 0 0 0 1.220031e-37
0.24802852 -0.61941624 -0.15101416 0 0 0 1.220031e-37
0.24848866 -0.61886978 -0.22014882 0 0 0 1.220031e-37
0.25069213 -0.61614728 -0.28931126 0 0 0 1.220031e-37
0.2272613 -0.3666923 -0.35110748 0 0 0 1.220031e-37
0.27524996 -0.58698082 -0.36188823 0 0 0 1.220031e-37
0.25831342 -0.32635593 -0.4286488 0 0 0 1.220031e-37
0.2691052 -0.3123374 -0.50393391 0 0 0 1.220031e-37
0.26799321 -0.61797285 -0.151556 0 0 0 1.220031e-37
0.25682211 -0.63114166 -0.21992338 0 0 0 1.220031e-37
0.25903845 -0.62842393 -0.28901559 0 0 0 1.220031e-37
0.25009441 -0.36167216 -0.35264966 0 0 0 1.220031e-37
0.28499508 -0.59782434 -0.36170539 0 0 0 1.220031e-37
0.30200338 -0.29475141 -0.43401206 0 0 0 1.220031e-37
0.30061531 -0.29654074 -0.50778991 0 0 0 1.220031e-37
0.27865267 -0.62442017 -0.1516334 0 0 0 1.220031e-37
0.26743937 -0.63755512 -0.2200361 0 0 0 1.220031e-37
0.27743268 -0.6257441 -0.29005042 0 0 0 1.220031e-37
0.25780916 -0.37272573 -0.35230696 0 0 0 1.220031e-37
0.29183412 -0.60887456 -0.36133966 0 0 0 1.220031e-37
0.30503535 -0.31223536 -0.43277436 0 0 0 1.220031e-37
0.28288555 -0.34060621 -0.50224692 0 0 0 1.220031e-37
0.29476166 -0.62769651 -0.15194301 0 0 0 1.220031e-37
0.27307916 -0.65290642 -0.21958521 0 0 0 1.220031e-37
0.2792201 -0.64566207 -0.28901559 0 0 0 1.220031e-37
0.28460598 -0.63939953 -0.35877955 0 0 0 1.220031e-37
0.31707573 -0.32167101 -0.43277436 0 0 0 1.220031e-37
0.31078005 -0.32967424 -0.50537992 0 0 0 1.220031e-37
0.2890377 -0.35731363 -0.57409376 0 0 0 1.220031e-37
0.29517627 -0.64917541 -0.15132378 0 0 0 1.220031e-37
0.29171681 -0.65316796 -0.22026154 0 0 0 1.220031e-37
0.30832386 -0.63389707 -0.29108527 0 0 0 1.220031e-37
0.31631422 -0.6246748 -0.36170539 0 0 0 1.220031e-37
0.32661009 -0.33426881 -0.43236181 0 0 0 1.220031e-37
0.28575897 -0.3858099 -0.49814987 0 0 0 1.220031e-37
0.28122568 -0.39152956 -0.56968617 0 0 0 1.220031e-37
0.30706692 -0.65421534 -0.15147859 0 0 0 1.220031e-37
0.29703116 -0.66572452 -0.21992338 0 0 0 1.220031e-37
0.31763554 -0.6419909 -0.29108527 0 0 0 1.220031e-37
0.32041955 -0.63879824 -0.36097392 0 0 0 1.220031e-37
0.32693863 -0.35486269 -0.4307116 0 0 0 1.220031e-37
0.26613545 -0.43108416 -0.49236584 0 0 0 1.220031e-37
0.24682736 -0.45528817 -0.55976897 0 0 0 1.220031e-37
0.31257796 -0.669662 -0.15116897 0 0 0 1.220031e-37
0.31831861 -0.66312695 -0.22082517 0 0 0 1.220031e-37
0.35742617 -0.61850381 -0.29433763 0 0 0 1.220031e-37
0.33389163 -0.64529562 -0.36133966 0 0 0 1.220031e-37
0.34505391 -0.35662556 -0.431743 0 0 0 1.220031e-37
0.27152133 -0.44811416 -0.49116084 0 0 0 1.220031e-37
0.23600578 -0.49230218 -0.5548104 0 0 0 1.220031e-37
0.33787727 -0.66266036 -0.15202041 0 0 0 1.220031e-37
0.35289288 -0.64569283 -0.22285418 0 0 0 1.220031e-37
0.37627435 -0.61916757 -0.29522461 0 0 0 1.220031e-37
0.35131025 -0.64737749 -0.36225396 0 0 0 1.220031e-37
0.31436563 -0.41877174 -0.42472947 0 0 0 1.220031e-37
0.27056909 -0.47285581 -0.48875082 0 0 0 1.220031e-37
0.19004107 -0.57229972 -0.54213846 0 0 0 1.220031e-37
0.36615157 -0.64945316 -0.22319235 0 0 0 1.220031e-37
0.43205905 -0.57534266 -0.30039883 0 0 0 1.220031e-37
0.34733415 -0.6704793 -0.36042532 0 0 0 1.220031e-37
0.31806922 -0.43459582 -0.42369807 0 0 0 1.220031e-37
0.2515378 -0.51622963 -0.48320779 0 0 0 1.220031e-37
0.19203806 -0.58923554 -0.54048562 0 0 0 1.220031e-37
0.37117028 -0.66555882 -0.15279445 0 0 0 1.220031e-37
0.39429092 -0.63978863 -0.22465776 0 0 0 1.220031e-37
0.23281622 -0.56202126 -0.33825579 0 0 0 1.220031e-37
0.36870098 -0.66820812 -0.36188823 0 0 0 1.220031e-37
0.32082415 -0.45484066 -0.42225412 0 0 0 1.220031e-37
0.25275135 -0.53774309 -0.48127979 0 0 0 1.220031e-37
0.17917919 -0.62734342 -0.53525156 0 0 0 1.220031e-37
0.23886085 -0.57733202 -0.3375704 0 0 0 1.220031e-37
0.3834424 -0.67344213 -0.36243683 0 0 0 1.220031e-37
0.31332088 -0.48732543 -0.41915992 0 0 0 1.220031e-37
0.21207762 -0.60970736 -0.47139871 0 0 0 1.220031e-37
0.19006538 -0.63631558 -0.53525156 0 0 0 1.220031e-37
0.24835086 -0.58520794 -0.3375704 0 0 0 1.220031e-37
0.27217889 -0.55658817 -0.41090876 0 0 0 1.220031e-37
0.22527695 -0.61292148 -0.47212172 0 0 0 1.220031e-37
0.20570755 -0.63642621 -0.5366289 0 0 0 1.220031e-37
0.25939107 -0.59443402 -0.3375704 0 0 0 1.220031e-37
0.2603116 -0.59333634 -0.40719572 0 0 0 1.220031e-37
0.22090435 -0.64031672 -0.4692297 0 0 0 1.220031e-37
0.21401429 -0.64853096 -0.53607798 0 0 0 1.220031e-37
0.21156287 -0.39797306 -0.27643001 0 0 0 1.220031e-37
0.26911116 -0.60522246 -0.33739904 0 0 0 1.220031e-37
0.26233363 -0.61324239 -0.40575176 0 0 0 1.220031e-37
0.23302436 -0.64792538 -0.46947071 0 0 0 1.220031e-37
0.21587229 -0.66822219 -0.53414965 0 0 0 1.220031e-37
0.19344783 -0.44199514 -0.27329651 0 0 0 1.220031e-37
0.2849679 -0.60560369 -0.33825579 0 0 0 1.220031e-37
0.28846502 -0.60149169 -0.40843341 0 0 0 1.220031e-37
0.22428465 -0.67695665 -0.4660967 0 0 0 1.220031e-37
0.21224332 -0.69111538 -0.53139484 0 0 0 1.220031e-37
0.18048167 -0.45901203 -0.76436949 0 0 0 1.220031e-37
0.17946172 -0.46043706 -0.83405101 0 0 0 1.220031e-37
0.21362662 -0.44002557 -0.27425018 0 0 0 1.220031e-37
0.28815413 -0.62404299 -0.33722767 0 0 0 1.220031e-37
0.29297352 -0.61841798 -0.40740201 0 0 0 1.220031e-37
0.22852993 -0.69363236 -0.46489167 0 0 0 1.220031e-37
0.22160649 -0.70171261 -0.53111941 0 0 0 1.220031e-37
0.1790092 -0.48455262 -0.69053292 0 0 0 1.220031e-37
0.1544342 -0.51592016 -0.75267959 0 0 0 1.220031e-37
0.1764729 -0.48790193 -0.82912791 0 0 0 1.220031e-37
0.21654558 -0.46008921 -0.27329651 0 0 0 1.220031e-37
0.31467605 -0.61531353 -0.33928394 0 0 0 1.220031e-37
0.29089308 -0.64286661 -0.40533921 0 0 0 1.220031e-37
0.24306464 -0.69827628 -0.46561468 0 0 0 1.220031e-37
0.23610306 -0.70634127 -0.53194582 0 0 0 1.220031e-37
0.17576933 -0.51208329 -0.68641031 0 0 0 1.220031e-37
0.17424774 -0.51401091 -0.75531924 0 0 0 1.220031e-37
0.1636126 -0.52759385 -0.82092279 0 0 0 1.220031e-37
0.22392154 -0.47102022 -0.27302402 0 0 0 1.220031e-37
0.32012606 -0.62794042 -0.33876988 0 0 0 1.220031e-37
0.28321695 -0.67042923 -0.40265757 0 0 0 1.220031e-37
0.22873807 -0.73314452 -0.46127665 0 0 0 1.220031e-37
0.236094 -0.72467637 -0.5300175 0 0 0 1.220031e-37
0.22556782 -0.46917248 -0.6270659 0 0 0 1.220031e-37
0.16462874 -0.54598641 -0.68057001 0 0 0 1.220031e-37
0.17660594 -0.53091097 -0.75305665 0 0 0 1.220031e-37
0.15621138 -0.55669022 -0.81517923 0 0 0 1.220031e-37
0.25533032 -0.45523286 -0.27520385 0 0 0 1.220031e-37
0.3415072 -0.62543321 -0.34014073 0 0 0 1.220031e-37
0.28346395 -0.69175887 -0.40100732 0 0 0 1.220031e-37
0.25361872 -0.72586274 -0.46392769 0 0 0 1.220031e-37
0.2427094 -0.7383287 -0.52919108 0 0 0 1.220031e-37
0.20246029 -0.5215075 -0.61839539 0 0 0 1.220031e-37
0.17704439 -0.55336785 -0.68091357 0 0 0 1.220031e-37
0.17679882 -0.5536747 -0.74966282 0 0 0 1.220031e-37
0.15267706 -0.58391643 -0.81025612 0 0 0 1.220031e-37
0.19677782 -0.55137253 -0.1981163 0 0 0 1.220031e-37
0.22175431 -0.52040148 -0.27029923 0 0 0 1.220031e-37
0.35108161 -0.63649511 -0.33996937 0 0 0 1.220031e-37
0.28358889 -0.71305084 -0.39935711 0 0 0 1.220031e-37
0.25495243 -0.74553227 -0.46224067 0 0 0 1.220031e-37
0.24925852 -0.7519908 -0.5283646 0 0 0 1.220031e-37
0.20877242 -0.53671789 -0.61715668 0 0 0 1.220031e-37
0.19438648 -0.55466461 -0.68263131 0 0 0 1.220031e-37
0.1879549 -0.562639 -0.74966282 0 0 0 1.220031e-37
0.16495156 -0.5912683 -0.81066638 0 0 0 1.220031e-37
0.19753814 -0.56997275 -0.19740947 0 0 0 1.220031e-37
0.20753145 -0.5576601 -0.26771069 0 0 0 1.220031e-37
0.36170769 -0.64323258 -0.34014073 0 0 0 1.220031e-37
0.28737116 -0.72701883 -0.39853197 0 0 0 1.220031e-37
0.26654935 -0.75048757 -0.46272266 0 0 0 1.220031e-37
0.25425553 -0.76434398 -0.52753818 0 0 0 1.220031e-37
0.17854285 -0.59359121 -0.60724753 0 0 0 1.220031e-37
0.1890471 -0.58075786 -0.6785087 0 0 0 1.220031e-37
0.17025852 -0.60390425 -0.74136674 0 0 0 1.220031e-37
0.15712643 -0.62018871 -0.80492282 0 0 0 1.220031e-37
0.24715471 -0.5319066 -0.13017541 0 0 0 1.220031e-37
0.22001457 -0.56509614 -0.19831826 0 0 0 1.220031e-37
0.21362042 -0.57291532 -0.26716572 0 0 0 1.220031e-37
0.38714123 -0.63653111 -0.34202564 0 0 0 1.220031e-37
0.2049582 -0.29784274 -0.40344778 0 0 0 1.220031e-37
0.30717111 -0.72600436 -0.39997593 0 0 0 1.220031e-37
0.27962971 -0.75681853 -0.46320468 0 0 0 1.220031e-37
0.27916026 -0.75734377 -0.53056842 0 0 0 1.220031e-37
0.1883018 -0.60409093 -0.60693789 0 0 0 1.220031e-37
0.20259857 -0.58671618 -0.67919582 0 0 0 1.220031e-37
0.18247414 -0.6113236 -0.74174386 0 0 0 1.220031e-37
0.18043137 -0.61392784 -0.80902535 0 0 0 1.220031e-37
0.24567986 -0.55655622 -0.12951928 0 0 0 1.220031e-37
0.22604823 -0.58038521 -0.19791435 0 0 0 1.220031e-37
0.21201825 -0.59741449 -0.26580334 0 0 0 1.220031e-37
0.41932583 -0.62257242 -0.34476733 0 0 0 1.220031e-37
0.20867205 -0.31804371 -0.40208477 0 0 0 1.220031e-37
0.30837703 -0.74579382 -0.39853197 0 0 0 1.220031e-37
0.28738379 -0.76910901 -0.46272266 0 0 0 1.220031e-37
0.27631426 -0.78140306 -0.52781367 0 0 0 1.220031e-37
0.19299102 -0.62072158 -0.60538954 0 0 0 1.220031e-37
0.2011044 -0.61098051 -0.67576033 0 0 0 1.220031e-37
0.1834271 -0.63243484 -0.73872709 0 0 0 1.220031e-37
0.17891884 -0.63801169 -0.80492282 0 0 0 1.220031e-37
0.24502802 -0.57676387 -0.12899438 0 0 0 1.220031e-37
0.2240541 -0.6020596 -0.19700556 0 0 0 1.220031e-37
0.22908688 -0.5959897 -0.26662078 0 0 0 1.220031e-37
0.23219991 -0.3083744 -0.40422663 0 0 0 1.220031e-37
0.32668757 -0.74356794 -0.39997593 0 0 0 1.220031e-37
0.30293655 -0.76978016 -0.46392769 0 0 0 1.220031e-37
0.29048324 -0.78352356 -0.52891558 0 0 0 1.220031e-37
0.19603872 -0.63605809 -0.60384125 0 0 0 1.220031e-37
0.20294285 -0.62783766 -0.67369902 0 0 0 1.220031e-37
0.18772912 -0.64618397 -0.73721874 0 0 0 1.220031e-37
0.18446994 -0.6502192 -0.80369204 0 0 0 1.220031e-37
0.23687649 -0.60898924 -0.1280102 0 0 0 1.220031e-37
0.22606874 -0.62192702 -0.19629872 0 0 0 1.220031e-37
0.23113298 -0.61586475 -0.26566708 0 0 0 1.220031e-37
0.20577574 -0.36782551 -0.32602271 0 0 0 1.220031e-37
0.22734404 -0.33969259 -0.40150064 0 0 0 1.220031e-37
0.35592294 -0.73251033 -0.40286386 0 0 0 1.220031e-37
0.31999254 -0.771873 -0.46513268 0 0 0 1.220031e-37
0.30346727 -0.78997684 -0.52946651 0 0 0 1.220031e-37
0.21196008 -0.63902664 -0.60507989 0 0 0 1.220031e-37
0.20119476 -0.65201735 -0.67026353 0 0 0 1.220031e-37
0.1998055 -0.65368032 -0.7375958 0 0 0 1.220031e-37
0.19903731 -0.65470433 -0.80492282 0 0 0 1.220031e-37
0.25941372 -0.60440874 -0.1286007 0 0 0 1.220031e-37
0.23182964 -0.63718438 -0.19589481 0 0 0 1.220031e-37
0.24720025 -0.6189208 -0.26621205 0 0 0 1.220031e-37
0.22247529 -0.37057638 -0.32666165 0 0 0 1.220031e-37
0.24778008 -0.33779955 -0.40286362 0 0 0 1.220031e-37
0.38123441 -0.72602201 -0.40513292 0 0 0 1.220031e-37
0.31422138 -0.79889822 -0.46224067 0 0 0 1.220031e-37
0.30571151 -0.80815244 -0.52781367 0 0 0 1.220031e-37
0.21898627 -0.65265417 -0.60415089 0 0 0 1.220031e-37
0.22340941 -0.64750361 -0.67335546 0 0 0 1.220031e-37
0.19794703 -0.67775488 -0.73382485 0 0 0 1.220031e-37
0.2009995 -0.67423224 -0.80205101 0 0 0 1.220031e-37
0.26752663 -0.6138742 -0.12853509 0 0 0 1.220031e-37
0.25016832 -0.63436842 -0.19660164 0 0 0 1.220031e-37
0.26687646 -0.6146419 -0.26730198 0 0 0 1.220031e-37
0.23993802 -0.36894393 -0.32762009 0 0 0 1.220031e-37
0.30798697 -0.28117704 -0.41084692 0 0 0 1.220031e-37
0.33919644 -0.78952289 -0.46513268 0 0 0 1.220031e-37
0.31716681 -0.81332922 -0.5283646 0 0 0 1.220031e-37
0.22823954 -0.66046715 -0.60415089 0 0 0 1.220031e-37
0.22503781 -0.66435099 -0.67129421 0 0 0 1.220031e-37
0.20458269 -0.68849921 -0.73307067 0 0 0 1.220031e-37
0.20891976 -0.68348217 -0.80164075 0 0 0 1.220031e-37
0.27716398 -0.62469101 -0.12846948 0 0 0 1.220031e-37
0.26102853 -0.64360094 -0.19660164 0 0 0 1.220031e-37
0.20828271 -0.43388319 -0.25055048 0 0 0 1.220031e-37
0.26874232 -0.63456082 -0.2663483 0 0 0 1.220031e-37
0.2370553 -0.3970027 -0.32570323 0 0 0 1.220031e-37
0.32871199 -0.27963829 -0.4122099 0 0 0 1.220031e-37
0.34542584 -0.80343747 -0.46440968 0 0 0 1.220031e-37
0.39895988 -0.74600911 -0.54296488 0 0 0 1.220031e-37
0.23130846 -0.67863727 -0.60229295 0 0 0 1.220031e-37
0.24985695 -0.65700507 -0.67507321 0 0 0 1.220031e-37
0.22289467 -0.68859982 -0.73533326 0 0 0 1.220031e-37
0.21959996 -0.69256306 -0.80164075 0 0 0 1.220031e-37
0.17984748 -0.47168279 -0.90172964 0 0 0 1.220031e-37
0.28415012 -0.63857007 -0.12827264 0 0 0 1.220031e-37
0.28487563 -0.63772607 -0.19761142 0 0 0 1.220031e-37
0.22481203 -0.43668604 -0.25104836 0 0 0 1.220031e-37
0.29260898 -0.6287303 -0.26771069 0 0 0 1.220031e-37
0.31995893 -0.31576371 -0.40889975 0 0 0 1.220031e-37
0.38556623 -0.78117704 -0.46971172 0 0 0 1.220031e-37
0.20336318 -0.73274922 -0.59300303 0 0 0 1.220031e-37
0.21953082 -0.71404505 -0.66407967 0 0 0 1.220031e-37
0.22075129 -0.7126255 -0.73156232 0 0 0 1.220031e-37
0.19834328 -0.73879051 -0.79138434 0 0 0 1.220031e-37
0.15754676 -0.5235846 -0.88932866 0 0 0 1.220031e-37
0.30129433 -0.63751745 -0.12866631 0 0 0 1.220031e-37
0.28241372 -0.65934157 -0.19670263 0 0 0 1.220031e-37
0.2223587 -0.46017289 -0.24980369 0 0 0 1.220031e-37
0.29671502 -0.64281082 -0.26716572 0 0 0 1.220031e-37
0.32903504 -0.32545662 -0.40870506 0 0 0 1.220031e-37
0.21236491 -0.74051261 -0.59300303 0 0 0 1.220031e-37
0.21312141 -0.73973918 -0.65995711 0 0 0 1.220031e-37
0.23624206 -0.71301723 -0.73344779 0 0 0 1.220031e-37
0.1791482 -0.77910447 -0.78235871 0 0 0 1.220031e-37
0.16115355 -0.53885174 -0.88711417 0 0 0 1.220031e-37
0.30951571 -0.64995122 -0.12853509 0 0 0 1.220031e-37
0.2826829 -0.68073845 -0.19589481 0 0 0 1.220031e-37
0.23385739 -0.46930456 -0.24980369 0 0 0 1.220031e-37
0.33114195 -0.62513781 -0.26961803 0 0 0 1.220031e-37
0.33730459 -0.33964968 -0.4081209 0 0 0 1.220031e-37
0.22413445 -0.74811649 -0.59331274 0 0 0 1.220031e-37
0.21064949 -0.76368761 -0.65652162 0 0 0 1.220031e-37
0.19260955 -0.78438377 -0.71760982 0 0 0 1.220031e-37
0.18433332 -0.79397774 -0.78071767 0 0 0 1.220031e-37
0.14561152 -0.58130479 -0.87737054 0 0 0 1.220031e-37
0.20292902 -0.50965405 -0.96751177 0 0 0 1.220031e-37
0.29177403 -0.3986001 -1.0739175 0 0 0 1.220031e-37
0.30710483 -0.3796103 -1.152128 0 0 0 1.220031e-37
0.34010124 -0.63686967 -0.12951928 0 0 0 1.220031e-37
0.32236648 -0.65706825 -0.1981163 0 0 0 1.220031e-37
0.24532247 -0.47847819 -0.24980369 0 0 0 1.220031e-37
0.33676934 -0.64066458 -0.26907307 0 0 0 1.220031e-37
0.34924412 -0.34920335 -0.4081209 0 0 0 1.220031e-37
0.22545171 -0.76764584 -0.5911451 0 0 0 1.220031e-37
0.21323538 -0.78165746 -0.65446031 0 0 0 1.220031e-37
0.20421624 -0.79192853 -0.71798694 0 0 0 1.220031e-37
0.19590044 -0.80149698 -0.78112793 0 0 0 1.220031e-37
0.15178013 -0.59623575 -0.87559897 0 0 0 1.220031e-37
0.18869162 -0.55051613 -0.95753253 0 0 0 1.220031e-37
0.2731998 -0.44568729 -1.0612414 0 0 0 1.220031e-37
0.29235172 -0.42208338 -1.1402837 0 0 0 1.220031e-37
0.32690263 -0.67052841 -0.12840387 0 0 0 1.220031e-37
0.33292818 -0.66370916 -0.19821727 0 0 0 1.220031e-37
0.22751617 -0.52052712 -0.24706544 0 0 0 1.220031e-37
0.36719918 -0.62492371 -0.2712529 0 0 0 1.220031e-37
0.33567476 -0.38683867 -0.40442133 0 0 0 1.220031e-37
0.23696041 -0.7725172 -0.59176439 0 0 0 1.220031e-37
0.22469282 -0.78649902 -0.65514737 0 0 0 1.220031e-37
0.21953511 -0.79233551 -0.71987242 0 0 0 1.220031e-37
0.20598245 -0.80777001 -0.78153819 0 0 0 1.220031e-37
0.14894724 -0.6190033 -0.87117004 0 0 0 1.220031e-37
0.19826579 -0.55823445 -0.95753253 0 0 0 1.220031e-37
0.26241994 -0.47924328 -1.0526216 0 0 0 1.220031e-37
0.29021525 -0.44510388 -1.1348999 0 0 0 1.220031e-37
0.35224938 -0.66361785 -0.12912561 0 0 0 1.220031e-37
0.22091818 -0.55151749 -0.17561834 0 0 0 1.220031e-37
0.36625743 -0.64788127 -0.19993389 0 0 0 1.220031e-37
0.21358299 -0.56063271 -0.24457611 0 0 0 1.220031e-37
0.21801901 -0.55518579 -0.31484115 0 0 0 1.220031e-37
0.32355833 -0.42571044 -0.40072176 0 0 0 1.220031e-37
0.24205899 -0.78760362 -0.59052575 0 0 0 1.220031e-37
0.23761559 -0.79269385 -0.6558345 0 0 0 1.220031e-37
0.22981644 -0.80145454 -0.71987242 0 0 0 1.220031e-37
0.21360397 -0.81976342 -0.78071767 0 0 0 1.220031e-37
0.15000892 -0.63996077 -0.86762691 0 0 0 1.220031e-37
0.18977046 -0.59137416 -0.9499293 0 0 0 1.220031e-37
0.17485356 -0.61000109 -1.0115511 0 0 0 1.220031e-37
0.28351593 -0.47688127 -1.1268243 0 0 0 1.220031e-37
0.2308147 -0.56218791 -0.17552915 0 0 0 1.220031e-37
0.37306666 -0.66200042 -0.19963095 0 0 0 1.220031e-37
0.22471356 -0.56973147 -0.24457611 0 0 0 1.220031e-37
0.22790504 -0.56584215 -0.31468141 0 0 0 1.220031e-37
0.32508135 -0.44752359 -0.39916405 0 0 0 1.220031e-37
0.25235748 -0.79680538 -0.59052575 0 0 0 1.220031e-37
0.24789548 -0.80187917 -0.6558345 0 0 0 1.220031e-37
0.25580072 -0.79306459 -0.72439754 0 0 0 1.220031e-37
0.24077511 -0.8099165 -0.78605103 0 0 0 1.220031e-37
0.16208649 -0.6473186 -0.86806983 0 0 0 1.220031e-37
0.18969417 -0.61389947 -0.94565248 0 0 0 1.220031e-37
0.17843747 -0.62792921 -1.0085089 0 0 0 1.220031e-37
0.18983388 -0.61426115 -1.0805237 0 0 0 1.220031e-37
0.22635794 -0.58698535 -0.17454804 0 0 0 1.220031e-37
0.21007776 -0.60680676 -0.24221125 0 0 0 1.220031e-37
0.22600603 -0.58751869 -0.31324378 0 0 0 1.220031e-37
0.33244371 -0.45874047 -0.39877462 0 0 0 1.220031e-37
0.26910067 -0.79592156 -0.59238374 0 0 0 1.220031e-37
0.2579999 -0.80831957 -0.65617806 0 0 0 1.220031e-37
0.2580328 -0.80828309 -0.72251207 0 0 0 1.220031e-37
0.32560301 -0.73351574 -0.80984586 0 0 0 1.220031e-37
0.16390371 -0.66397452 -0.86541247 0 0 0 1.220031e-37
0.17060924 -0.65606713 -0.93472284 0 0 0 1.220031e-37
0.18037462 -0.6445632 -1.0054666 0 0 0 1.220031e-37
0.17466807 -0.65167904 -1.0697562 0 0 0 1.220031e-37
0.25144792 -0.57923532 -0.17552915 0 0 0 1.220031e-37
0.23508239 -0.59901333 -0.24358039 0 0 0 1.220031e-37
0.24341321 -0.58899999 -0.31404245 0 0 0 1.220031e-37
0.33503509 -0.4789865 -0.39741164 0 0 0 1.220031e-37
0.27006412 -0.81545615 -0.5902161 0 0 0 1.220031e-37
0.26822233 -0.81757975 -0.65617806 0 0 0 1.220031e-37
0.32375002 -0.7565062 -0.73834997 0 0 0 1.220031e-37
0.33346534 -0.74592066 -0.80902535 0 0 0 1.220031e-37
0.17839885 -0.66839361 -0.86674112 0 0 0 1.220031e-37
0.17393303 -0.67396665 -0.93187159 0 0 0 1.220031e-37
0.18500876 -0.66097426 -1.0029314 0 0 0 1.220031e-37
