# .PCD v0.7 - Point Cloud Data file format
VERSION 0.7
FIELDS x y z
SIZE 4 4 4
TYPE F F F
COUNT 1 1 1
WIDTH 288
HEIGHT 1
VIEWPOINT 0 0 0 1 0 0 0
POINTS 288
DATA ascii
1.6764166 11.978383 -1.1105343
1.7269301 12.061601 -0.68783826
1.717106 11.994477 -0.89809191
1.707548 11.927712 -1.1063284
1.7787178 12.10686 -0.47394145
1.7737387 12.07297 -0.68885279
1.7729417 12.06901 -0.90415311
1.7564641 11.956842 -1.10962
1.8186135 12.070617 -0.47278041
1.8209513 12.086134 -0.68997997
1.8162736 12.056514 -0.90370959
1.8026499 11.966079 -1.1110829
1.8598689 12.086571 -0.47363183
1.8525345 12.038908 -0.68761283
1.8529279 12.042863 -0.90311825
1.8402334 11.960357 -1.1110829
1.9057118 12.089544 -0.47401884
1.8969578 12.03401 -0.68772554
1.8945706 12.020229 -0.90193558
1.8856084 11.963368 -1.1119971
1.9503279 12.084451 -0.47409624
1.9397793 12.019091 -0.68727463
1.9376609 12.007298 -0.90149212
1.9326166 11.976039 -1.1138258
1.9915287 12.097983 -0.47487029
1.9817452 12.038551 -0.68874002
1.9789367 12.022799 -0.90311825
1.9744359 11.995456 -1.1162031
2.0355248 12.088633 -0.4747929
2.0255239 12.029238 -0.6886273
2.0243137 12.023333 -0.90370959
2.0210335 12.00385 -1.117666
2.0893121 12.136237 -0.47696018
2.0756977 12.057155 -0.69065636
2.0720897 12.037455 -0.90533578
2.0680571 12.014027 -1.1193117
2.1343338 12.168983 -0.47850826
2.1349535 12.172516 -0.69764519
2.1285007 12.136971 -0.91331881
2.1167989 12.070245 -1.1251634
2.1824455 12.18075 -0.47928229
2.1862447 12.201954 -0.69978696
2.2587373 11.888056 -0.68310386
2.2615213 11.903842 -0.89809191
1.7338789 11.958358 -1.0390999
2.3125517 11.932627 -0.68614739
1.7774036 11.949951 -1.0389285
1.7794247 11.96354 -1.2541794
1.8386551 12.100403 -0.25723156
1.8263118 12.01917 -1.0454401
1.8170004 11.957891 -1.2541794
1.8777633 12.059995 -0.25651714
1.8709651 12.016334 -1.0457828
2.3108037 11.504868 -1.0774359
1.8614283 11.955082 -1.2545919
1.9203784 12.043158 -0.25630704
1.9149947 12.009395 -1.0457828
2.3445694 11.455346 -1.0735956
1.9124382 11.993362 -1.2593364
1.9598089 12.046933 -0.25651714
1.9543135 12.013153 -1.0466396
2.3793292 11.442074 -1.0730472
1.9769388 12.152231 -1.2766638
2.0098593 12.075173 -0.25727358
2.2993789 10.856857 -0.42982146
1.9983308 12.00591 -1.0466396
2.4224885 11.439121 -1.0735956
2.0097075 12.07426 -1.2692378
2.3324161 10.817099 -0.42858303
2.3818188 11.047151 -0.83762777
2.0459993 12.020113 -1.0485245
2.3808668 11.042736 -1.0372057
2.0569525 12.084463 -1.2710942
2.3732255 10.840954 -0.42982146
2.4322929 11.110777 -0.64207256
2.4058502 10.990904 -0.83393192
2.0895407 12.047003 -1.0514375
2.4087329 11.004072 -1.0342799
2.0959268 12.083821 -1.2717131
2.4116399 10.826331 -0.42958927
2.4460814 10.980946 -0.63508368
2.4439497 10.972278 -0.83319277
2.1388969 12.068694 -1.0540079
2.4382236 10.94657 -1.0297083
2.1412435 12.081935 -1.272332
2.4500465 10.838195 -0.4303633
2.4730823 10.940097 -0.63316739
2.4744501 10.947037 -0.83186227
2.4651363 10.905832 -1.0265996
2.4991577 10.870043 -0.43198878
1.6805657 12.074037 -0.61626083
2.5131631 10.930959 -0.63316739
2.5141096 10.93595 -0.83171445
2.505538 10.898664 -1.0267825
2.5462606 10.891947 -0.43322721
1.7248081 12.067796 -0.61626083
2.5513918 10.913897 -0.63271648
1.7201757 12.035386 -0.83010751
2.5528131 10.920835 -0.83127093
2.5463734 10.893287 -1.0271482
2.590323 10.900041 -0.43392384
1.7687373 12.059417 -0.61615986
2.5946078 10.918071 -0.63350558
1.7726734 12.086253 -0.83405846
2.5992782 10.938573 -0.83334059
2.2781336 11.874825 -1.0397854
2.5904262 10.90132 -1.0287939
1.8259071 12.182523 -0.18598919
1.8165399 12.120025 -0.40227088
2.6470258 10.985107 -0.43763921
1.8077985 12.061702 -0.6165638
2.6298308 10.913749 -0.63373101
1.8061982 12.051024 -0.83201486
2.6326954 10.926475 -0.83304495
2.3139019 11.859785 -1.0390999
2.6283929 10.908618 -1.0302569
1.85263 12.059131 -0.1842078
1.8648957 12.13897 -0.40312386
1.8483551 12.031303 -0.61535203
2.6807363 10.948646 -0.63632363
1.8485373 12.032491 -0.83119738
2.681145 10.951142 -1.0351942
1.8870972 12.031519 -0.18387567
1.9011637 12.121202 -0.40273017
1.8849053 12.017544 -0.61494815
1.8847834 12.016768 -0.83051622
1.9353046 12.05019 -0.18426818
1.9449434 12.110206 -0.40259895
1.931473 12.026333 -0.61575598
1.9303964 12.019629 -0.83119738
1.9791335 12.041042 -0.18423799
1.9928827 12.124693 -0.40332067
1.9800743 12.046766 -0.61716962
1.9737904 12.008535 -0.83092493
2.4027643 11.451455 -1.0061996
2.0392971 12.129135 -0.40371436
2.0258706 12.049277 -0.61767453
2.0220916 12.026801 -0.83269602
2.4355607 11.399701 -1.0024298
2.4040532 11.081728 -0.23832057
2.0875206 12.181775 -0.40568274
2.0691123 12.074353 -0.61929017
2.0699754 12.07939 -0.83678323
2.4020791 11.072628 -0.9743275
2.4368942 11.037697 -0.23756413
2.1390519 12.213421 -0.406995
2.1329947 12.178836 -0.62504584
2.4215963 10.968406 -0.96593112
2.4531679 11.111406 -1.1799188
2.4715581 11.029986 -0.23756413
2.1758051 12.197639 -0.62635851
2.4477642 10.9238 -0.96267533
2.4541352 10.952231 -1.1638288
2.5137458 11.028652 -0.23773223
2.4829144 10.893384 -0.96079046
2.4836504 10.896613 -1.1588782
2.5210242 10.876446 -0.960105
2.5172832 10.860306 -1.1559902
1.7406952 12.081085 -0.54487175
1.734422 12.036058 -0.75824815
2.2464712 11.873213 -0.82506663
1.7285424 11.995256 -0.97103971
2.5574613 10.878171 -0.96096176
1.7351394 12.039548 -1.1898984
2.5568526 10.875582 -1.1584656
1.7829176 12.060788 -0.54424739
1.7834878 12.06319 -0.76036412
1.7859082 12.07956 -0.97838759
2.6019461 10.888104 -0.96267533
1.7705202 11.974035 -1.1840569
2.600858 10.883552 -1.1603222
1.8307039 12.077878 -0.54531771
1.8303822 12.074334 -0.76148427
1.8268832 12.051252 -0.97663051
2.6460676 10.895923 -0.96421754
1.8149921 11.971401 -1.1844463
2.6562228 10.937739 -1.1671294
1.8637483 12.040475 -0.54389066
1.8609767 12.021181 -0.75849712
1.8638192 12.039543 -0.97615129
2.6974328 10.957211 -0.97038633
1.853506 11.971541 -1.1850305
1.9113079 12.05527 -0.54487175
1.9087752 12.037937 -0.75999069
1.9076216 12.030662 -0.97599155
1.9051654 12.013816 -1.1898984
1.9570804 12.058045 -0.54531771
1.9477664 11.999335 -0.75799924
1.9529811 12.031461 -0.97663051
1.9641768 12.099097 -1.1990498
2.290699 10.857 -0.36421558
1.9969099 12.063664 -0.54585284
1.990344 12.022696 -0.75986624
1.9907694 12.025266 -0.97663051
1.9959999 12.055555 -1.1953503
2.3279576 10.836805 -0.36382189
2.0454476 12.081874 -0.54701233
2.0367286 12.029098 -0.76073748
2.3761859 11.061312 -0.77247816
2.0384917 12.039511 -0.97838759
2.043828 12.069746 -1.1974921
2.3911452 10.935603 -0.3674306
2.0921013 12.088077 -0.54763669
2.4111423 11.027057 -0.5706194
2.0872724 12.058923 -0.76310235
2.4005151 10.978455 -0.76730108
2.0877054 12.061424 -0.98078364
2.0843172 12.0406 -1.1953503
2.4393487 10.990483 -0.3695302
2.1397805 12.136539 -0.55013406
2.4323559 10.958978 -0.56748909
2.1556489 12.225296 -0.77405536
2.4358578 10.974755 -0.76757354
2.1380498 12.125485 -0.98653418
2.134578 12.104561 -1.20236
2.485338 11.006817 -0.37038314
2.1994762 12.213169 -0.55396926
2.4760258 10.965576 -0.56829691
2.1901815 12.160342 -0.77044588
2.4694736 10.936558 -0.76552993
2.5261106 10.999581 -0.37044877
2.50547 10.909705 -0.56587344
2.2231839 12.089411 -0.76646292
2.5095415 10.927434 -0.76552993
2.5738068 11.048048 -0.37235153
2.5474358 10.934852 -0.56759006
2.2578483 12.064708 -0.76534277
2.5470276 10.933099 -0.7664836
2.616586 11.048266 -0.37267959
2.5796714 10.892399 -0.56587344
2.2706046 11.891652 -0.75488758
2.5857029 10.917866 -0.7660749
2.271112 11.894309 -0.97024101
2.631263 10.93142 -0.56839788
2.6359744 10.950994 -0.76907218
2.3150725 11.887862 -0.97040075
2.2454555 11.529306 -1.1490084
1.8545609 12.122443 -0.11258724
1.8548753 12.124498 -0.3299683
2.6783776 10.975493 -0.57112426
2.2897844 11.5632 -1.1530974
1.8903083 12.060242 -0.11207314
1.8949672 12.089966 -0.32921532
1.9316462 12.03546 -0.11190789
1.9370487 12.069121 -0.32883883
1.9726942 12.049166 -0.32846233
2.3637314 11.110948 -0.91018003
2.3953261 11.088194 -0.70734149
2.3847339 11.039162 -0.90490872
2.3904514 11.064692 -1.1073395
2.3951585 10.894714 -0.49795693
2.4153757 10.985761 -0.70136714
2.4127636 10.973881 -0.9002763
2.4185929 10.999479 -1.1016928
2.4328928 10.876114 -0.49751097
2.4556243 10.976834 -0.70136714
2.4529688 10.964964 -0.9002763
2.4449852 10.928381 -1.095462
2.4753993 10.878813 -0.49804613
2.490082 10.942457 -0.69974905
2.4878325 10.932572 -0.89835948
2.4783976 10.890233 -1.0925412
2.5104625 10.874876 -0.4982245
2.5248954 10.936525 -0.69987351
2.5185783 10.909163 -0.89708161
2.5108068 10.874636 -1.0917624
2.5598917 10.90645 -0.50009751
2.5631382 10.919425 -0.69937563
2.559912 10.905681 -0.89756078
2.5561063 10.888614 -1.0940989
2.5904415 10.882804 -0.49938399
2.5988166 10.917144 -0.69974905
2.5992391 10.918919 -0.89931792
2.5916843 10.886339 -1.0946831
2.6434653 10.927612 -0.50188136
2.6463225 10.938588 -0.7017405
2.6481483 10.946135 -0.90235293
2.6460779 10.936742 -1.1007192
2.6854069 10.925611 -0.50223815
2.6940203 10.95983 -0.70373195
2.6987195 10.978947 -0.9058671
2.2967668 11.09262 -0.30474332
2.3184314 10.99414 -0.30226925
2.3692875 11.063045 -0.30436683
2.4055612 11.034753 -0.30382898
2.4399276 10.998536 -0.303076
2.4757857 10.996668 -0.30323738
2.522768 11.016752 -0.30404413
