# .PCD v0.7 - Point Cloud Data file format
VERSION 0.7
FIELDS x y z
SIZE 4 4 4
TYPE F F F
COUNT 1 1 1
WIDTH 275
HEIGHT 1
VIEWPOINT 0 0 0 1 0 0 0
POINTS 275
DATA ascii
1.7091155 11.761547 -0.67092973
1.7040808 11.728338 -0.87843001
1.6889977 11.624529 -1.0785331
1.7495627 11.737429 -0.6699152
1.7441157 11.702287 -0.87695163
1.7324731 11.624169 -1.0790817
1.7925708 11.730938 -0.6699152
1.7954299 11.751021 -0.881091
1.7873993 11.698462 -1.0865791
1.8408144 11.798306 -0.46248573
1.8300314 11.729194 -0.67014068
1.8298784 11.729558 -0.87990832
1.8229142 11.684917 -1.0858476
1.892874 11.846736 -0.46465302
1.8701733 11.704661 -0.66912615
1.8693959 11.701107 -0.87828213
1.8669863 11.686025 -1.0865791
1.9314435 11.810135 -0.46349198
1.9111267 11.685905 -0.66844982
1.9100169 11.680398 -0.87724733
1.904984 11.64962 -1.0838361
1.9691939 11.807951 -0.46364677
1.9530852 11.711357 -0.6702534
1.9473586 11.678274 -0.87754297
1.9481245 11.682868 -1.0874934
2.0104432 11.788834 -0.46318236
2.0000246 11.72774 -0.67160606
1.9918249 11.680889 -0.87828213
1.9919356 11.68154 -1.088042
2.0553386 11.827746 -0.46496263
2.0375421 11.725334 -0.67183155
2.0322673 11.69619 -0.87990832
2.0337386 11.704657 -1.0907849
2.1133492 11.902779 -0.46821359
2.0878346 11.759075 -0.67419875
2.0911601 11.778998 -0.88670868
2.0814984 11.724578 -1.093345
2.140183 11.802428 -0.67712951
2.1393807 11.799176 -1.1010253
2.1936042 11.849482 -0.68028581
2.168735 11.716285 -0.88316071
2.2385821 11.88374 -0.68265295
2.1885493 11.61925 -0.8763603
1.7493646 11.635806 -1.0118544
1.7576958 11.69122 -1.225919
1.8158792 11.78428 -0.2505917
1.8096017 11.743541 -1.021793
1.7987167 11.672902 -1.2246814
1.8525115 11.736069 -0.24970919
1.8492141 11.715178 -1.0199081
1.8349743 11.624967 -1.2203494
1.8874644 11.718346 -0.24945705
1.8796718 11.669966 -1.0164809
1.8746495 11.638784 -1.2224122
1.9297513 11.707403 -0.249373
1.9259967 11.684625 -1.0183659
1.9208541 11.653426 -1.2246814
1.9796292 11.741658 -0.25025553
2.3066401 10.77971 -0.42695755
1.9658284 11.659803 -1.0168236
1.9800898 11.74439 -1.2349954
2.3278449 10.687216 -0.42362919
2.0132892 11.680012 -1.0192226
2.0207565 11.723331 -1.2335514
2.3303428 10.539351 -0.41805613
2.3797789 10.763826 -0.81707883
2.0520411 11.685405 -1.0202508
2.3694322 10.717028 -1.0077646
2.0575762 11.716925 -1.2335514
2.3636923 10.507342 -0.41712731
2.4056454 10.694708 -0.81249601
2.1036525 11.726838 -1.0245347
2.3942728 10.64415 -1.0017301
2.1019123 11.717137 -1.2343765
2.4269326 10.632356 -0.42239073
2.4386668 10.683763 -0.61862606
2.4281363 10.638485 -0.80880016
2.150507 11.775058 -1.0293326
2.4214962 10.609392 -0.99916995
2.1483622 11.763314 -1.239946
2.4812496 10.689578 -0.42502245
2.4651663 10.62029 -0.61546981
2.468014 10.6334 -0.8090958
2.4549618 10.577165 -0.9969756
2.5217893 10.686247 -0.42525467
1.7059183 11.759736 -0.60071045
2.4994891 10.591748 -0.61434257
1.7024103 11.735554 -0.80967158
2.4991837 10.591282 -0.80658263
2.487309 10.540958 -0.99441552
2.5665114 10.724919 -0.42711234
1.7408034 11.740488 -0.6000036
2.5304279 10.574134 -0.61377895
1.7380996 11.722253 -0.80912662
2.5370862 10.602776 -0.808061
2.5241201 10.548588 -0.9958784
1.7835226 11.732054 -0.59990263
2.5686953 10.562848 -0.61366624
1.7891492 11.769066 -0.81280506
2.5735741 10.583715 -0.80732179
2.5637066 10.543136 -0.99624413
2.6651921 10.787304 -0.4303633
1.8268181 11.727411 -0.6000036
2.6097875 10.563055 -0.61422986
1.8249021 11.715112 -0.80953532
2.6190453 10.60132 -0.8093915
2.6147513 10.58394 -1.0009986
1.8749251 11.79252 -0.1802827
1.875385 11.795412 -0.39203531
1.8602017 11.699915 -0.59889287
2.6575105 10.612915 -0.61761159
1.8604439 11.701438 -0.80899036
2.6649327 10.643345 -0.81323516
2.6615336 10.629768 -1.0061188
1.9084971 11.726355 -0.1793769
1.9147515 11.764783 -0.39124796
1.9059595 11.710762 -0.59980166
1.9033194 11.694541 -0.80899036
1.9501495 11.71139 -0.17925613
1.9473521 11.69459 -0.38914835
1.9501811 11.711579 -0.60020554
1.9435471 11.671741 -0.80790043
2.3451431 11.061509 -1.1724926
1.9880964 11.712063 -0.3899357
1.9923129 11.736903 -0.60182118
1.9845464 11.691151 -0.80967158
2.3752766 11.032695 -1.1702236
2.0356588 11.73149 -0.60192215
2.0297713 11.69756 -0.81062526
2.4225106 11.055006 -1.173524
2.0831766 11.749518 -0.60323483
2.0830817 11.748983 -0.81471241
2.3938243 10.735759 -0.9458825
2.462147 11.04217 -1.1731114
2.1339188 11.819577 -0.60717297
2.1462157 11.887689 -0.82479417
2.417865 10.685428 -0.94211268
2.4248221 10.716174 -1.1392816
2.1873639 11.866678 -0.61000031
2.1771121 11.811062 -0.82002574
2.4467342 10.63183 -0.93817151
2.4511442 10.650993 -1.1332996
2.2056313 11.724565 -0.81457621
2.4788754 10.593688 -0.93560117
2.4738486 10.572206 -1.1258734
1.7223657 11.777609 -0.74219203
2.2237015 11.619588 -0.80776423
1.7101011 11.693744 -0.94691944
2.5135243 10.591664 -0.93611526
1.699858 11.622283 -1.1490084
2.511184 10.581802 -1.12773
1.7631325 11.756689 -0.53069025
1.7590076 11.727789 -0.73945379
1.7479223 11.65388 -0.94420391
2.5476558 10.56301 -0.93440169
1.7403774 11.602196 -1.1476454
2.5434213 10.545453 -1.124842
1.8083359 11.763971 -0.53131461
1.809563 11.770586 -0.74256545
1.8069825 11.7538 -0.95282972
2.5892 10.565213 -0.93542981
1.7961996 11.682303 -1.1562128
2.5872638 10.557314 -1.1271112
1.8431162 11.744415 -0.53069025
1.8387947 11.715544 -0.73945379
1.8380259 11.710646 -0.94979471
2.6310256 10.591837 -0.93851423
1.8301135 11.658905 -1.1544603
2.6300094 10.587747 -1.1312368
1.8893192 11.757308 -0.53158218
1.8823555 11.712667 -0.7397027
1.8809352 11.70383 -0.94979471
2.6795781 10.620765 -0.94194132
1.8759921 11.671772 -1.1564075
2.6765842 10.608898 -1.1345372
1.9333719 11.756219 -0.53184974
1.9233282 11.693871 -0.73895591
1.922525 11.688989 -0.94915575
1.920051 11.672674 -1.1571864
2.2955122 10.768114 -0.36139423
1.9702955 11.750087 -0.53184974
1.9584053 11.677928 -0.73833358
1.9605565 11.690756 -0.94979471
1.9580293 11.674437 -1.1579652
2.323518 10.706884 -0.35962269
2.0204389 11.784142 -0.53372276
2.0076036 11.708053 -0.74069846
2.0060875 11.699211 -0.95107263
2.0051787 11.692686 -1.1604965
2.3644693 10.706104 -0.35988513
2.0656855 11.788465 -0.53425795
2.0508468 11.702581 -0.74082291
2.3727264 10.743491 -0.75122482
2.0489538 11.69178 -0.95107263
2.051801 11.706825 -1.1626383
2.3980918 10.698623 -0.35988513
2.1097307 11.821256 -0.53604174
2.1005788 11.768788 -0.74542814
2.3916278 10.669785 -0.74659264
2.0982852 11.755939 -0.95682311
2.0976634 11.751268 -1.1677009
2.435955 10.683915 -0.35968831
2.1619997 11.862585 -0.53827155
2.4013007 10.531923 -0.54608202
2.1676815 11.892583 -0.75376737
2.4245086 10.633712 -0.74468529
2.1367114 11.722672 -0.95474654
2.4732914 10.667126 -0.35942584
2.2054636 11.854581 -0.53827155
2.4412394 10.528889 -0.54638499
2.2065086 11.859047 -0.75214934
2.4612134 10.615035 -0.74400413
2.5141125 10.690436 -0.36047566
2.4761338 10.528945 -0.54678887
2.2389271 11.826559 -0.75053126
2.4945493 10.60725 -0.74400413
2.560714 10.712256 -0.36152545
2.5226026 10.552825 -0.54850549
2.2637129 11.722239 -0.74443245
2.5320184 10.592215 -0.74359536
2.5612636 10.543509 -0.54850549
2.2734945 11.54543 -0.73372835
2.575063 10.600313 -0.74482155
1.8303082 11.798556 -0.32120141
2.6048818 10.578079 -0.55072695
2.3148479 11.563676 -0.73534638
2.6102605 10.599921 -0.74536651
1.8685203 11.760177 -0.32034084
2.6533291 10.607215 -0.55274647
2.6611989 10.638676 -0.7487725
1.899698 11.718725 -0.31937274
1.9426366 11.711684 -0.31937274
1.9892272 11.726168 -0.31996435
2.3738437 11.043837 -1.105003
2.3620729 10.797227 -0.88558054
2.4062223 10.998116 -1.1013033
2.3291867 10.48982 -0.47967264
2.3773983 10.706066 -0.87871188
2.385957 10.743722 -1.0765747
2.369379 10.489009 -0.4800294
2.4236262 10.728285 -0.68580884
2.4095931 10.666166 -0.87615609
2.4147909 10.688307 -1.0719016
2.4127283 10.501675 -0.48101053
2.4468393 10.649295 -0.68132806
2.4446526 10.639776 -0.87471843
2.4419136 10.627007 -1.0666442
2.4479759 10.503772 -0.48145649
2.4734864 10.612394 -0.67946106
2.4721832 10.606804 -0.87264186
2.4707687 10.599897 -1.0646971
2.4929066 10.521948 -0.48270518
2.5119059 10.601315 -0.67933661
2.5138004 10.60931 -0.8736003
2.5086846 10.586896 -1.0643077
2.5417452 10.555475 -0.48466739
2.5493429 10.586215 -0.67896318
2.5494013 10.586458 -0.87248212
2.5456066 10.56989 -1.0635288
2.5810535 10.572671 -0.48582688
2.5859017 10.591728 -0.67983449
2.585484 10.590017 -0.87344056
2.5816331 10.573442 -1.0646971
2.6294062 10.601925 -0.4876107
2.6266272 10.58993 -0.6803323
2.6310003 10.607559 -0.87567687
2.6265991 10.589025 -1.0672284
2.6755674 10.621279 -0.48894858
2.674201 10.615072 -0.68257272
2.6809537 10.641092 -1.0734593
2.3684771 10.75634 -0.29629916
2.4004548 10.714421 -0.29538482
2.4383762 10.699703 -0.29522347
2.4742301 10.70173 -0.29549238
2.5166395 10.706213 -0.29586887
