# .PCD v0.7 - Point Cloud Data file format
VERSION 0.7
FIELDS x y z
SIZE 4 4 4
TYPE F F F
COUNT 1 1 1
WIDTH 794
HEIGHT 1
VIEWPOINT 0 0 0 1 0 0 0
POINTS 794
DATA ascii
1.8466036 5.1075921 -0.49867067
1.8626405 5.1017656 -0.49867067
1.8923628 5.1247916 -0.40491748
1.8778775 5.0855627 -0.49775633
1.9091502 5.1206899 -0.40506533
1.8945407 5.0815043 -0.4979392
1.9272021 5.1117921 -0.40491748
1.91245 5.0726628 -0.49775633
1.9445039 5.1009665 -0.40462184
1.9359953 5.0786462 -0.4990364
1.9705477 5.120893 -0.40669149
1.9512255 5.0706801 -0.49885353
2.002775 5.1479998 -0.21394318
1.9878572 5.1099186 -0.40639582
1.9647429 5.0505018 -0.49757347
2.0055387 5.0997081 -0.21224031
2.0623159 5.244082 -0.31810546
2.0124121 5.1174479 -0.4075785
1.9854273 5.0488272 -0.49812207
2.0171266 5.0822372 -0.2117759
2.041949 5.1447783 -0.3124693
2.0255361 5.1036849 -0.40698716
1.9990748 5.0370111 -0.49757347
2.0275557 5.0544066 -0.21092446
2.0459232 5.100194 -0.31021482
2.0486836 5.1073337 -0.40787417
2.0234547 5.0444384 -0.4990364
2.0490708 5.0543499 -0.21123406
2.0548496 5.0686045 -0.30874941
2.0703864 5.1071844 -0.4084655
2.04193 5.0369878 -0.4990364
2.0603993 5.0367894 -0.21076965
2.068495 5.0565791 -0.30841124
2.0894415 5.1080389 -0.40905684
2.0562358 5.0268617 -0.49867067
2.0841904 5.0421324 -0.21131147
2.0870144 5.048964 -0.30841124
2.1089113 5.1021895 -0.40920469
1.8717389 5.156558 -0.47174177
2.0860581 5.0469003 -0.50141364
1.8414774 5.0731888 -0.55963629
1.8500541 5.0968175 -0.65817481
1.8485746 5.0927415 -0.75342923
2.1034269 5.0363035 -0.21138887
2.1085839 5.0486512 -0.30886215
2.1337466 5.1091495 -0.41038737
1.8782645 5.1159925 -0.46865737
2.104542 5.0392203 -0.50141364
1.8662297 5.0832124 -0.5614928
1.8714596 5.0974574 -0.6591388
1.8576701 5.0598979 -0.74957252
2.1215665 5.0351958 -0.21162109
2.1360643 5.0696039 -0.31055298
2.1497869 5.1024213 -0.41038737
1.8943275 5.1100669 -0.46865737
2.1350553 5.0674558 -0.50488806
1.8918704 5.1034384 -0.56438071
1.8867743 5.0896916 -0.65889782
1.8756226 5.0596089 -0.75039899
2.1470518 5.0439353 -0.21231772
2.1817534 5.1257057 -0.41290054
1.906749 5.0862966 -0.46711516
2.1645341 5.0852518 -0.50744814
1.9056746 5.0834308 -0.56293672
1.9019316 5.0734463 -0.65769279
1.8878962 5.0360065 -0.74791968
2.2107677 5.1414952 -0.41482237
1.9324414 5.0979066 -0.46882871
2.1863048 5.0846028 -0.50817961
1.9313447 5.0950136 -0.56499952
1.9296626 5.0905762 -0.66082579
1.9400448 5.1179647 -0.76114255
2.2388136 5.161972 -0.4170399
1.9463109 5.0862274 -0.46831465
2.2086077 5.0923266 -0.50964254
1.9444978 5.0814896 -0.56417441
1.9534509 5.1048861 -0.66347682
1.949034 5.0933437 -0.7583878
1.9854641 5.132112 -0.11565125
2.2633204 5.1665201 -0.41807473
1.9627829 5.0734844 -0.46780059
2.2240605 5.0769005 -0.50891107
1.9580849 5.0613408 -0.56273043
1.9649845 5.0791755 -0.66106683
1.9626857 5.0732336 -0.75645947
1.9855763 5.0848722 -0.11472671
2.2859888 5.1739793 -0.4192574
1.9801615 5.0710053 -0.46814328
2.2512674 5.0953927 -0.51147115
1.9833827 5.0792546 -0.5654121
1.9765984 5.0618806 -0.65962082
1.9735702 5.0541258 -0.75453115
1.9983268 5.0626812 -0.11439051
2.3195665 5.1983514 -0.42191842
1.9972713 5.0600066 -0.46780059
2.3153751 5.1889586 -0.52171153
1.9924908 5.0478954 -0.56273043
1.9965957 5.0582952 -0.66010278
1.9920813 5.0468583 -0.75453115
2.0109415 5.0404654 -0.11405431
2.0158038 5.0526524 -0.46780059
2.3335598 5.1786218 -0.52152866
2.0131903 5.046102 -0.56334931
2.0107076 5.0398788 -0.65865678
2.0179062 5.0579219 -0.75728589
2.0237794 5.0267034 -0.11388622
2.0376208 5.0610824 -0.46917143
2.0282903 5.0379071 -0.56314301
2.0309799 5.0445881 -0.66010278
2.0263877 5.0331817 -0.75453115
2.0497255 5.0377731 -0.11430646
2.053153 5.0461974 -0.46848601
2.0489905 5.0359674 -0.56376183
2.0479591 5.033432 -0.65962082
2.0478079 5.0330606 -0.75563306
2.0757797 5.0487204 -0.11472671
2.0792117 5.0570679 -0.47019956
2.0697041 5.0339432 -0.56438071
2.0716786 5.0387459 -0.66130781
2.0730207 5.0420103 -0.75811231
2.0942702 5.0410781 -0.11472671
2.0977328 5.0494132 -0.47019956
2.0927196 5.0373459 -0.5656184
2.0848007 5.0182848 -0.65962082
2.0854068 5.0197434 -0.75590849
2.1224637 5.0639801 -0.1153991
1.9210275 5.2144594 -0.37942711
2.1197476 5.0574999 -0.4715704
2.1100726 5.0344162 -0.56603092
2.1120679 5.0391769 -0.66323584
2.1057608 5.0241289 -0.75756139
1.8437133 5.0040584 -0.83577824
1.8640704 5.0590377 -1.035123
1.8679916 5.069407 -1.1323073
1.9199243 5.1531596 -0.37547615
2.144486 5.0643759 -0.47294125
2.1416972 5.0577903 -0.5695377
2.1312973 5.0332303 -0.66347682
2.1311128 5.0327945 -0.76004064
1.8613518 4.9954157 -0.83546853
1.8485869 4.9608932 -0.92311537
1.8421363 4.9435821 -1.0128744
1.8742557 5.02951 -1.1249226
1.9339963 5.1414995 -0.37506744
2.1658649 5.0704412 -0.47414073
2.1567948 5.0492077 -0.56933141
2.1517787 5.0374646 -0.66492283
2.1469133 5.0260744 -0.76004064
1.8812104 5.0006394 -0.83732653
1.8600003 4.9439964 -0.92105412
1.8500502 4.9175487 -1.0087264
1.8776398 4.9906192 -1.1175381
1.9514092 5.1306467 -0.37479496
2.1931183 5.0825944 -0.47602564
2.1894732 5.0741463 -0.57304442
2.17888 5.0495968 -0.66757387
2.1770928 5.0454545 -0.76417279
1.9100634 5.0214128 -0.84197146
1.878809 4.9389877 -0.92139763
1.8680614 4.9107347 -1.0087264
1.8938307 4.9782152 -1.1163073
1.9715726 5.127027 -0.18030344
1.9694847 5.1215973 -0.37465873
2.2165093 5.0854821 -0.47705379
2.198518 5.0442038 -0.5705691
2.2108588 5.0725179 -0.67167085
2.2137747 5.0792079 -0.77050877
1.9504417 5.0715485 -0.85157096
1.9357984 5.0332108 -0.94029284
1.8902781 4.9148545 -1.010989
1.9134694 4.9748945 -1.1171278
1.9797134 5.1003098 -0.1795817
1.9927851 5.133986 -0.37602112
2.2453053 5.1076803 -0.47979549
2.2303653 5.0736947 -0.57469469
2.2779191 5.1818709 -0.68709499
2.240881 5.0976162 -0.77436543
1.9556392 5.0377665 -0.84692603
1.947323 5.0160837 -0.93823153
1.9284554 4.9674835 -1.0230559
1.9234215 4.9542603 -1.1138458
2.0101988 5.1231055 -0.083091274
1.9962033 5.0874372 -0.17938486
2.01086 5.1247902 -0.37588489
2.2753308 5.1249137 -0.48219445
2.3062599 5.1945777 -0.58934051
2.3186486 5.2224822 -0.69360203
1.9798647 5.0452795 -0.84940332
1.9664145 5.010747 -0.93857509
1.954542 4.980494 -1.0272039
1.942282 4.9489994 -1.114256
2.0068445 5.0599365 -0.082185477
2.0089407 5.0652218 -0.17885996
2.0170324 5.0856237 -0.27657521
2.0333078 5.1266599 -0.37656608
2.3104041 5.152905 -0.48562157
2.3228416 5.1806445 -0.58872169
2.3182795 5.1704688 -0.68781799
1.9888725 5.0141125 -0.84537774
1.988399 5.0126634 -0.94029284
1.9742317 4.9769483 -1.0279582
1.9654605 4.9545841 -1.1171278
2.0286756 5.0684595 -0.082427025
2.0151873 5.03476 -0.17800699
2.0292883 5.0699897 -0.27607033
2.0494037 5.1202464 -0.37656608
2.3512096 5.2000914 -0.49076223
2.3497603 5.1968861 -0.59140331
2.3353293 5.1649694 -0.68805897
2.0104892 5.0225143 -0.84785503
1.9968145 4.9881005 -0.93685734
1.9883976 4.9670744 -1.0272039
1.9861087 4.9611058 -1.1199996
2.0389898 5.0405974 -0.0820949
2.0426221 5.0495768 -0.17879435
2.047857 5.0625181 -0.27607033
2.0614223 5.0960531 -0.37533993
2.3459983 5.1383147 -0.68564898
2.0281432 5.0132799 -0.84754539
2.0232117 5.0008392 -0.9406364
2.0169024 4.9852443 -1.0324833
2.0116205 4.9719391 -1.1241021
2.0604777 5.0404949 -0.082215674
2.0641415 5.0494576 -0.17905679
2.0618634 5.0438848 -0.27546448
2.0861266 5.1032391 -0.37642983
1.8471049 5.152813 -0.53546399
2.3589969 5.1170602 -0.68396193
2.0465043 5.0058126 -0.84754539
2.040036 4.9897428 -0.93994927
2.0329306 4.9723639 -1.031352
2.0727971 5.0696211 -1.147897
2.0709651 5.0210557 -0.082004324
2.0815189 5.0466437 -0.17918803
2.0845537 5.0540013 -0.27637324
2.1067135 5.107728 -0.37724727
1.8769641 5.1850567 -0.44183186
1.8422796 5.088964 -0.52942783
2.3717134 5.1024222 -0.68299794
2.0659876 5.008492 -0.84909368
2.0602098 4.9942374 -0.94201058
2.061275 4.99682 -1.0377626
2.0931926 5.0739417 -1.1503586
2.110894 5.0651164 -0.082849726
2.0930812 5.0223746 -0.17859751
2.0946112 5.0260458 -0.2752625
2.1353986 5.1239157 -0.3790184
1.8671668 5.0995154 -0.43512291
1.86571 5.0952616 -0.53079087
2.3853378 5.082911 -0.68155193
2.0881314 5.010005 -0.85064197
2.0838068 4.999383 -0.94441539
2.0833538 4.9982963 -1.0396481
2.1095161 5.0608153 -1.1491278
2.1519494 5.1107945 -0.083725326
2.1238866 5.0441461 -0.17964731
2.1238704 5.0441079 -0.27667618
2.1541643 5.1160545 -0.3790184
1.8927679 5.1113334 -0.43672028
1.8905939 5.1051888 -0.53254324
2.4022515 5.0705457 -0.68106991
2.1041796 4.9968548 -0.84971303
2.1013517 4.9898963 -0.94407189
2.1047087 4.9978676 -1.0411564
2.1250117 5.0458331 -1.1474868
1.8805223 5.0750003 -1.2290274
2.1670749 5.1018424 -0.18194376
2.1819277 5.1368103 -0.38106197
1.9039291 5.0922904 -0.43560213
1.9059259 5.0973597 -0.53234857
2.4138908 5.0540161 -0.67986494
2.1330006 5.0211358 -0.85497725
2.1278028 5.0086579 -0.94888157
2.1311512 5.0165391 -1.0464357
2.1439149 5.046339 -1.1491278
1.8862054 5.041667 -1.222384
2.2180505 5.1691194 -0.38405925
1.9218755 5.0834131 -0.43544239
1.9281155 5.099649 -0.5333221
2.4332607 5.0469232 -0.68010592
2.1490519 5.0078373 -0.85404825
2.1515856 5.0134993 -0.95128638
2.1564949 5.0249391 -1.0498296
2.1631682 5.040246 -1.149538
1.8908694 4.9982362 -1.2135261
1.9892681 5.2039275 -0.3473852
2.248091 5.1865859 -0.3859666
1.9497482 5.1005435 -0.43751895
1.9560337 5.1167183 -0.53585339
2.1799657 5.028933 -0.85900289
2.1785667 5.025465 -0.95506543
2.1819286 5.0332198 -1.0532235
2.1839628 5.0376716 -1.1507689
1.9098729 4.993094 -1.213969
2.0012953 5.1864786 -0.34663841
2.2683704 5.1886392 -0.38664779
1.9514085 5.0571938 -0.43432423
1.9556167 5.0678363 -0.53137499
2.439997 4.9740605 -0.5744884
2.4491951 4.9928107 -0.67504489
2.2100017 5.054647 -0.86457682
2.2053945 5.0438695 -0.95987511
2.2016644 5.0353384 -1.0551089
2.202131 5.0361662 -1.1519996
1.9199297 4.9725137 -1.2104259
2.0170281 5.1710095 -0.24777438
2.013037 5.160512 -0.34539375
2.3075221 5.2259235 -0.39005378
1.9865946 5.0927258 -0.43799818
1.9806888 5.0773244 -0.53312743
2.4564462 4.9615183 -0.57407582
2.4613116 4.9713454 -0.6733579
2.2293112 5.0483203 -0.86488646
2.2469487 5.0880203 -0.96983802
2.2264528 5.0416088 -1.0581257
2.2442989 5.08178 -1.1643072
1.9388512 4.9672604 -1.2108688
1.9307429 4.9459777 -1.2987278
2.0205765 5.1245484 -0.24590136
2.0282764 5.1438146 -0.34477141
1.993546 5.0557361 -0.43544239
1.9912527 5.0496616 -0.53098553
2.4586091 4.9204497 -0.57036281
2.4670918 4.9374261 -0.66998386
1.9599074 4.9673777 -1.2126404
2.027801 5.0958982 -0.24483106
2.0451643 5.1392717 -0.34489587
2.0219505 5.0809379 -0.43815792
2.0056348 5.0396819 -0.53059614
1.9762247 4.9630079 -1.2130833
2.0412462 5.0754557 -0.24420671
2.0632422 5.129889 -0.34477141
2.0465107 5.0882897 -0.43943581
2.0278065 5.0415306 -0.53156972
2.519984 4.9585776 -0.57675749
2.0118773 4.999155 -1.2237127
2.0515594 5.0475798 -0.2432256
2.0745139 5.1038008 -0.34352675
2.0658972 5.0826015 -0.43959555
2.0477703 5.0377526 -0.53195912
2.5090926 4.892664 -0.57015651
2.0889688 5.1362791 -1.2591441
2.0711973 5.0503526 -0.24367157
2.0988696 5.1175733 -0.34489587
2.0871499 5.0889978 -0.4407137
2.0703847 5.0478692 -0.53371155
2.6234078 5.0762372 -0.69360203
2.1021328 5.1224737 -1.2573725
2.0843396 5.0298066 -0.24304722
2.109206 5.0895619 -0.34352675
2.1080778 5.0868392 -0.4411929
2.096493 5.0586352 -0.53565872
2.6603556 5.1017966 -0.69842201
2.1238816 5.1219406 -1.2591441
2.1127923 5.046092 -0.24420671
2.1455781 5.124145 -0.34638947
2.1243978 5.0735617 -0.4407137
2.1165574 5.0545893 -0.53604811
2.6855078 5.1043115 -0.70010906
2.1328428 5.0907369 -1.2533865
2.136409 5.0578351 -0.24509864
2.1810839 5.1633492 -0.34950113
2.1527386 5.0962462 -0.44326949
2.138623 5.0625839 -0.53760582
2.1548996 5.0983829 -1.2569296
2.1604218 5.0628347 -0.24572296
2.2078285 5.1736798 -0.3507458
2.1729677 5.0919895 -0.44358897
2.1595078 5.0602036 -0.53819001
2.1705081 5.0832763 -1.2551581
2.2544332 5.2297101 -0.35510209
2.2042434 5.1132827 -0.44614476
2.5935819 4.34095 -0.4642922
2.1882839 5.0760169 -0.54072124
2.1898971 5.0770774 -1.2556009
1.9629674 5.1142392 -0.1473697
2.2210913 5.108161 -0.44630447
2.5794814 4.2867055 -0.45935485
2.2026324 5.0654664 -0.54033184
2.2081707 5.0755382 -1.2569296
1.9759128 5.0920992 -0.14693943
2.6010318 4.2868743 -0.37165484
2.2574351 5.1401434 -0.4498187
2.5941424 4.2755198 -0.45917201
2.2467971 5.1156783 -0.54656267
2.2338202 5.0834804 -1.2609156
1.9887224 5.0699329 -0.14650916
2.6031952 4.2551937 -0.36973298
2.2932343 5.170105 -0.45317316
2.6118743 4.2693806 -0.45953771
2.3010445 5.1874685 -0.55513012
2.2556016 5.0823898 -1.2626872
2.0149431 5.089685 -0.14726213
2.5106983 4.0750241 -0.27019802
2.6155043 4.2452965 -0.36958516
2.3184199 5.1828933 -0.45493028
2.6398995 4.2848935 -0.46209782
2.3238325 5.1947498 -0.55668783
2.0505793 5.1247396 -0.050675273
2.0090742 5.0210114 -0.14548725
2.5013831 4.026782 -0.26760536
2.5079136 4.0374517 -0.35228857
2.6324673 4.2379689 -0.45807481
2.3518705 5.2061515 -0.55882967
2.0576835 5.0960188 -0.050454944
2.0293295 5.0257978 -0.14580995
2.5309756 4.0460067 -0.18483949
2.5087264 4.0104394 -0.26704177
2.5195274 4.0278621 -0.35214072
2.5095191 4.0118623 -0.43448532
2.0801256 5.0977011 -0.050546747
2.0560453 5.0386882 -0.14640158
2.5276647 4.007966 -0.18352363
2.5170174 3.9910836 -0.26636541
2.5310814 4.0135393 -0.35169724
2.5008342 3.9655762 -0.43046233
2.1148052 5.12887 -0.050932322
2.080596 5.0459051 -0.14683186
2.5326872 3.9834964 -0.182827
2.5252004 3.9717209 -0.26568907
2.5404243 3.9958198 -0.35095805
2.5057349 3.941257 -0.42881653
2.1059964 5.0548553 -0.14731592
2.5310938 3.9489486 -0.18166594
2.5451281 3.9708445 -0.2662527
2.5604341 3.9948778 -0.35169724
2.5319853 3.9504912 -0.43082803
2.1265142 5.0592728 -0.14763862
2.5499897 3.9510524 -0.18213037
2.5370171 3.9309521 -0.26411095
2.5697269 3.9817867 -0.35125372
2.5303442 3.920763 -0.42845082
2.563364 3.9400046 -0.18205296
2.5590303 3.9333434 -0.26490003
2.5875669 3.9773571 -0.35169724
2.5153732 3.8663881 -0.42351347
2.5812049 3.9402909 -0.18243998
2.5746572 3.9302957 -0.2652382
2.6011422 3.9708769 -0.35184506
2.5209594 3.8484707 -0.4224163
2.5813134 3.9091234 -0.18143374
2.5835435 3.9125011 -0.26467457
2.5980942 3.9346859 -0.34947973
2.6035185 4.3449984 -0.43558574
2.5185864 3.8142753 -0.41967332
2.6411135 4.4077406 -0.53281993
2.6144485 3.9279187 -0.1827496
2.6045048 3.9129791 -0.26535091
2.6224442 3.9400804 -0.35081023
2.6029389 4.3081384 -0.43284404
2.5457916 3.824914 -0.4218677
2.6171298 4.3316259 -0.52477503
2.6201 3.9097247 -0.18228517
2.6167848 3.9047778 -0.26535091
2.6292577 3.9235377 -0.35007104
2.6019592 4.2761083 -0.43044508
2.5533605 3.8102794 -0.42113623
2.6265888 4.3165851 -0.52394992
2.4816384 4.0783706 -0.66389924
2.6500733 3.9232805 -0.18336882
2.6489623 3.9216356 -0.26715448
2.6570172 3.9337084 -0.35184506
2.6280348 4.2835274 -0.43215865
2.5751121 3.812448 -0.4224163
2.6413519 4.3052335 -0.52374363
2.4669263 4.0209308 -0.57261932
2.4437377 3.983135 -0.64984989
2.6882539 3.9486744 -0.35406259
2.6342826 4.2586145 -0.43061644
2.6036386 3.8243864 -0.42479354
2.6372297 4.2633791 -0.51982433
2.4440465 3.9510763 -0.56394327
2.4510255 3.9623587 -0.64792156
2.6623986 4.2739964 -0.43301541
2.6269002 3.8326159 -0.42662218
2.5307019 4.0625815 -0.49630848
2.4595964 3.9484344 -0.56466627
2.4582245 3.9462321 -0.64654422
2.6812251 4.2692719 -0.43352947
2.6703615 3.8655667 -0.43137664
2.4926746 3.9690459 -0.48599449
2.4645481 3.9242606 -0.56249726
2.4726717 3.9371958 -0.64654422
2.6595464 4.2004914 -0.42753205
2.7357211 3.9293056 -0.43960553
2.4859214 3.9262679 -0.48186889
2.4651074 3.8933942 -0.5593642
2.4839065 3.9230855 -0.64571774
2.5291841 3.9669678 -0.4045704
2.48648 3.8999872 -0.47959983
2.4687879 3.8722377 -0.55743623
2.4653358 3.866823 -0.63772893
2.5318556 3.9392323 -0.40268549
2.4824722 3.8623984 -0.47609308
2.4797435 3.8581526 -0.55671322
2.4644971 3.8344312 -0.63387227
2.5527778 3.93996 -0.40371361
2.4901216 3.8432565 -0.47485539
2.4809124 3.8290429 -0.55382121
2.4839201 3.8336852 -0.63524961
2.0046351 3.7814679 -1.1962749
2.5694978 3.9385962 -0.40439904
2.4956615 3.825418 -0.47361773
2.483166 3.8062644 -0.55165219
2.4840457 3.8076127 -0.63221937
2.0237651 3.7887435 -1.2005819
2.5587342 3.8908596 -0.40045786
2.5074794 3.812921 -0.47320515
2.4971001 3.7971377 -0.55165219
2.4925423 3.7902071 -0.63084203
2.4370608 4.0854516 -0.91332161
2.0285006 3.764344 -1.1951982
2.5718765 3.8797944 -0.4002865
2.5214376 3.803705 -0.47320515
2.5055156 3.7796855 -0.55044717
2.5053229 3.7793949 -0.63056654
2.4391224 4.0552125 -0.74164093
2.4566422 4.0841789 -0.83104432
2.4165845 4.0175829 -0.9001233
2.0533235 3.7771914 -1.2016587
2.5792475 4.258173 -0.33991763
2.5685661 3.8484917 -0.39788753
2.5289576 3.7891462 -0.47238004
2.5129685 3.7651899 -0.54948318
2.512785 3.764915 -0.62946463
2.4467316 4.0390797 -0.74009258
2.4337308 4.0174599 -0.81902015
2.4057877 3.971333 -0.89145017
2.0550017 3.7521386 -1.1957365
2.5865169 4.2350678 -0.33882773
2.5960014 3.8588917 -0.3999438
2.555043 3.7980082 -0.47464913
2.5356176 3.7691331 -0.55141121
2.5376244 3.7721159 -0.63221937
2.4419506 3.9980466 -0.734209
2.4350877 3.9866543 -0.81455398
2.4018984 3.9323173 -0.88466245
2.4581089 4.0241857 -0.98830736
2.0836434 3.7715573 -1.2043506
2.4937348 4.0497069 -0.24042554
2.4953043 4.0522556 -0.32493129
2.6045358 3.8411047 -0.39908701
2.561131 3.7770925 -0.47320515
2.5449581 3.7532411 -0.55044717
2.5358686 3.739836 -0.62836272
2.4410462 3.9638331 -0.72956407
2.4465837 3.9726694 -0.81352335
2.4162948 3.9234877 -0.88466245
2.4307551 3.9468136 -0.97148687
2.4948657 4.0231795 -0.23931479
2.5038164 4.0376134 -0.32438633
2.6356893 3.8608809 -0.40200007
2.5729845 3.7690277 -0.47320515
2.5500202 3.7353888 -0.54900116
2.5721765 3.7678442 -0.6344232
2.4493215 3.9494281 -0.72832543
2.4434752 3.9398477 -0.80837011
2.4099751 3.8858321 -0.87787473
2.4245713 3.9092147 -0.96410221
2.5074768 4.0106211 -0.23911284
2.509078 4.0131822 -0.32316017
2.6656356 3.874177 -0.40439904
2.5958025 3.7726829 -0.47485539
2.6120868 3.7963505 -0.5593642
2.6241467 3.8138778 -0.64378941
2.4606378 3.9353981 -0.72739643
2.4474535 3.9141598 -0.80493462
2.427325 3.881969 -0.87900603
2.4368074 3.8969827 -0.96328169
2.5304163 4.014503 -0.15576433
2.5072482 3.9777467 -0.23769917
2.5280261 4.0107107 -0.32370514
2.7047987 3.9004047 -0.40816885
2.6164143 3.7729518 -0.47609308
2.6339035 3.7981718 -0.56105125
2.641494 3.8091178 -0.64461583
2.4666159 3.912981 -0.72491914
2.4596817 3.9018297 -0.80424756
2.4310627 3.856431 -0.87523508
2.4448109 3.8780897 -0.9608202
2.533375 3.9913445 -0.15517381
2.5240138 3.9765961 -0.23810308
2.5341978 3.9926412 -0.32288769
2.6430583 3.7859187 -0.4787747
2.6412766 3.7833667 -0.5600872
2.6829305 3.8430316 -0.65177828
2.4757202 3.900208 -0.72399014
2.4592564 3.8741219 -0.80012494
2.4400082 3.8437998 -0.87410384
2.4527857 3.8637795 -0.95917916
2.5318263 3.9567764 -0.15418962
2.5213466 3.9403985 -0.23648745
2.5477393 3.9816453 -0.32275146
2.7336135 3.8852134 -0.49259543
2.7088223 3.849978 -0.57141429
2.7391741 3.8931165 -0.66197091
2.4953234 3.8994293 -0.72553849
2.4745011 3.8667419 -0.8004685
2.4593735 3.8431029 -0.87598932
2.4658756 3.8531151 -0.9587689
2.5484786 3.9508297 -0.15432085
2.5433509 3.9428806 -0.23719428
2.5677235 3.9806645 -0.32343265
2.4956744 3.8686726 -0.72151285
2.4779758 3.84109 -0.79703301
2.4713132 3.8307619 -0.87523508
2.4152493 3.7437143 -0.93374324
2.5597892 3.9411278 -0.15425524
2.5491974 3.9248202 -0.23658843
2.5747821 3.9642112 -0.32275146
2.5078158 3.8608131 -0.72151285
2.4707117 3.8035452 -0.79084915
2.4373281 3.7521529 -0.85902005
2.4280648 3.7377498 -0.9341535
2.5632675 3.9149954 -0.15359911
2.5624714 3.9137795 -0.23648745
2.5947595 3.9630945 -0.32343265
2.4883959 3.8003511 -0.71191335
2.4544144 3.7483108 -0.78122979
2.4381523 3.7234762 -0.85449493
2.4353139 3.7189996 -0.931692
2.5963175 3.9339361 -0.15471452
2.5823002 3.9126968 -0.23699233
2.6158621 3.9635496 -0.3242501
2.5582016 4.2727509 -0.3990224
2.5982516 4.3394718 -0.49476871
2.471832 3.7450314 -0.70324278
2.4518554 3.7146242 -0.77607656
2.4387994 3.694844 -0.8499698
2.4543202 3.7182171 -0.93374324
2.6153014 3.9357493 -0.1551082
2.5990014 3.9112194 -0.23739624
2.621675 3.9453409 -0.32343265
2.5829363 4.283473 -0.40077952
2.6108439 4.3295832 -0.49457401
2.4835851 3.7372472 -0.70324278
2.4700563 3.7167487 -0.77813786
2.4688764 3.7149732 -0.8563804
2.5418324 3.8246071 -0.96246123
2.6441703 3.9477277 -0.15596116
2.6133192 3.9016674 -0.23739624
2.6438906 3.9473102 -0.32438633
2.6037972 4.2824945 -0.40157819
2.6277292 4.3216858 -0.49476871
2.4972661 3.7281194 -0.70324278
2.4902415 3.7174923 -0.78019911
2.4835689 3.7075312 -0.85675752
2.5427599 3.7957497 -0.95753813
2.6563847 3.9346964 -0.15582994
2.6354256 3.9036512 -0.23810308
2.5883491 4.2221479 -0.30880067
2.6628065 3.9442084 -0.32493129
2.6173918 4.2695231 -0.40125871
2.6393898 4.3052378 -0.49398986
2.5142305 3.7238541 -0.70417178
2.5060551 3.711606 -0.78088623
2.5608885 3.7928169 -0.87862897
2.5741813 3.812361 -0.96410221
2.5061772 4.0594316 -0.29747424
2.6830361 3.9473753 -0.32588497
2.6318393 4.2629752 -0.40141845
2.6382625 4.2732124 -0.49126387
2.5381355 3.7339122 -0.70757806
2.6041005 3.8308108 -0.80768305
2.5838332 3.8009965 -0.88239986
2.589447 3.8091116 -0.96533298
2.4659307 3.9923708 -1.0655999
2.5064585 4.0269508 -0.21174096
2.5094357 4.0315776 -0.29610512
2.6611416 4.2753034 -0.40349504
2.5950012 4.1688819 -0.48035988
2.6031752 3.7995651 -0.7218225
2.5969646 3.7903585 -0.80115563
2.6066284 3.8044631 -0.88541663
2.6056035 3.8028247 -0.9661535
2.4289978 3.9005272 -1.0434554
2.4309411 3.9033444 -1.1248038
2.5148292 4.0075831 -0.21120581
2.5146461 4.0071359 -0.29498494
2.5432718 4.0527515 -0.38336819
2.5108047 4.0008597 -0.46205673
2.640661 3.8241425 -0.72832543
2.6578617 3.8489084 -0.81558466
2.6305997 3.8094299 -0.88881046
2.6306472 3.8093565 -0.97025609
2.4494998 3.901509 -1.0461127
2.439033 3.8845365 -1.1219525
2.4424837 3.88958 -1.2037205
2.5167336 3.9827721 -0.21031389
2.5229571 3.9924664 -0.29448706
2.5421464 4.0228329 -0.38129163
2.5020943 3.9592988 -0.45816246
2.6650679 3.833674 -0.73173171
2.7149265 3.9052496 -0.82932657
2.6638563 3.8317883 -0.89597529
2.6526582 3.8155382 -0.97394836
2.4429846 3.8641212 -1.0381407
2.4377277 3.8555083 -1.1157749
2.4443512 3.865536 -1.1986501
2.4564149 3.8843136 -1.2845688
2.5388288 3.985317 -0.21093823
2.5418632 3.9899266 -0.29498494
2.5558026 4.011807 -0.38113189
2.4994764 3.9232416 -0.45504701
2.7210507 3.8837547 -0.74318922
2.731483 3.8985 -0.83001369
2.703805 3.8589964 -0.90464842
2.461324 3.8617201 -1.0399122
2.449754 3.8432713 -1.1148245
2.4585028 3.8565509 -1.1986501
2.4675288 3.8704116 -1.2829537
2.5393832 3.9541297 -0.20977874
2.549998 3.970506 -0.29423812
2.5618708 3.9889927 -0.37985399
2.497704 3.8889318 -0.45212632
2.7439883 3.885963 -0.91332161
2.4153671 3.7591455 -1.0146673
2.4081621 3.7476442 -1.0896387
2.4684374 3.8410041 -1.1966219
2.4702423 3.8435178 -1.2770315
2.5550475 3.9511657 -0.21004632
2.562459 3.9624753 -0.29423812
2.561399 3.9608359 -0.37793717
2.5012617 3.8676944 -0.45056859
2.4123328 3.7286136 -1.0084668
2.4135916 3.730274 -1.0867876
2.4741857 3.8234847 -1.1935797
2.4770722 3.8276527 -1.2743397
2.5586014 3.9250367 -0.2091544
2.5769651 3.9530568 -0.29423812
2.5835199 3.9631119 -0.37905532
2.5034633 3.8401587 -0.44842675
2.4259827 3.7197471 -1.0084668
2.4314928 3.7279115 -1.0886884
2.5019238 3.8354557 -1.2001712
2.496347 3.8266144 -1.2770315
2.577359 3.9223115 -0.20951116
2.5936289 3.9469216 -0.29448706
2.5914593 3.9436197 -0.37809688
2.5120556 3.8226399 -0.44745317
2.4353142 3.7043116 -1.0066953
2.4344671 3.7027414 -1.0839363
2.5074613 3.813328 -1.1961149
2.5040054 3.8077829 -1.2738013
2.5962832 3.9241931 -0.21004632
2.6115229 3.9470775 -0.29510939
2.6060357 3.9387844 -0.37841636
2.5328393 3.8280096 -0.44901088
2.4501693 3.7015214 -1.0080239
2.4836206 3.7517729 -1.1005684
2.5226328 3.8102713 -1.197636
2.5287161 3.81917 -1.2802619
2.6051059 3.9063396 -0.20960036
2.625972 3.9374795 -0.29510939
2.5983317 3.8960345 -0.37522164
2.5313904 3.7955167 -0.44628489
2.5481527 3.8190613 -1.0425695
2.5491138 3.8202126 -1.1233782
2.5430245 3.8106551 -1.2006782
2.5469742 3.8162847 -1.2824153
2.6238644 3.903398 -0.20995712
2.6448405 3.9344547 -0.29560727
2.6237161 3.9030302 -0.37681898
2.5552793 3.8010805 -0.44803733
2.5610449 3.8080778 -1.0421267
2.5685194 3.8189042 -1.1257541
2.552655 3.7948878 -1.1986501
2.5630946 3.8101203 -1.2834921
2.6495526 3.9149919 -0.21102743
2.641552 3.9030232 -0.37761769
2.5716708 3.7996278 -0.44881618
2.5839305 3.8161628 -1.0465556
2.5815935 3.8124247 -1.1262293
2.5797522 3.8092759 -1.2057487
2.5966547 3.8339458 -1.2942597
2.6592097 3.8982561 -0.37809688
2.5911887 3.7983983 -0.44978973
2.6000988 3.8098886 -1.0474414
2.6065011 3.8189831 -1.1309813
2.6013315 3.8109803 -1.209298
2.6226349 3.841902 -1.3001817
2.7220473 3.9591234 -0.38496557
2.6242647 3.8167591 -0.45309988
2.6273091 3.8196161 -1.0527561
2.6425016 3.8414159 -1.1404854
2.649837 3.8281357 -0.45543647
2.6492889 3.825774 -1.0567421
2.6991556 3.8690052 -0.4614726
2.5404785 3.9712141 -0.12682399
2.5594378 3.9732978 -0.12714671
2.5598288 3.9420922 -0.12644751
2.5939693 3.9627934 -0.12741563
2.62731 3.9863417 -0.12843753
2.6363714 3.968359 -0.12816861
