# .PCD v0.7 - Point Cloud Data file format
VERSION 0.7
FIELDS x y z
SIZE 4 4 4
TYPE F F F
COUNT 1 1 1
WIDTH 976
HEIGHT 1
VIEWPOINT 0 0 0 1 0 0 0
POINTS 976
DATA ascii
2.1400235 0.11264087 -0.19676188
2.1364436 0.10460175 -0.19639614
2.1578629 0.097723909 -0.16010429
2.1288543 0.09641017 -0.19566469
2.1382318 0.090104565 -0.15862595
2.1251669 0.089554012 -0.19529895
2.1325684 0.082036942 -0.15818244
2.1095598 0.081151813 -0.19383605
2.1507947 0.074844413 -0.15951295
2.1158142 0.073627137 -0.19438463
2.1430452 0.067834727 -0.15892161
2.1001101 0.066475682 -0.19292173
2.1392918 0.059868027 -0.15862595
2.1083031 0.059000805 -0.19365318
2.1279829 0.051709574 -0.12016316
2.135509 0.051929753 -0.15833028
2.0806305 0.050595257 -0.19109309
2.1259301 0.04497743 -0.082357295
2.1461022 0.045404203 -0.12117767
2.1516142 0.045558389 -0.15951295
2.0927262 0.044311494 -0.19219027
2.2100215 0.14369047 -0.30798313
2.1060987 0.036835719 -0.081583254
2.1742053 0.03802691 -0.1227558
2.1417956 0.037497453 -0.15877378
2.0749528 0.036327202 -0.19054449
2.1808751 0.13377018 -0.30385098
2.1341958 0.029502977 -0.082666904
2.1603537 0.029864583 -0.12196673
2.1399245 0.029619524 -0.15862595
2.0850291 0.028859699 -0.19145881
2.2100797 0.12743248 -0.26871654
2.1536636 0.12417956 -0.29999429
2.1162925 0.022605952 -0.081970274
2.1604369 0.023077495 -0.12196673
2.1459901 0.022960635 -0.15906945
2.083118 0.022287948 -0.19127595
2.1589246 0.1176791 -0.26245052
2.1085491 0.11493322 -0.29365835
2.1243548 0.014905287 -0.082279891
2.1425359 0.015032852 -0.12095222
2.1500487 0.015123093 -0.15936512
2.0752194 0.014596754 -0.19054449
2.1655777 0.11008247 -0.22484465
2.1355469 0.10855593 -0.2595585
2.0713668 0.10529346 -0.28842428
2.1323893 0.0071458248 -0.0825895
2.1545575 0.0072201127 -0.12162856
2.1640515 0.0072896979 -0.16039996
2.0931835 0.0070509762 -0.19219027
2.1500697 0.10139481 -0.22319442
2.0625513 0.097267538 -0.25064144
2.0400791 0.096207775 -0.28401664
2.1224086 0.00044460903 -0.082202487
2.1385951 0.0004479998 -0.12072677
2.1600747 0.00049019983 -0.16010429
2.1400228 0.094183952 -0.18420719
2.11112 0.0004790902 -0.19383605
2.0987048 0.092365518 -0.21783115
2.0588796 0.090612784 -0.25015944
2.0146439 0.08866594 -0.28043544
2.1084065 -0.0072860671 -0.081660658
2.1186142 -0.0073213419 -0.11959954
2.1441057 -0.0073720114 -0.15892161
2.1562817 0.086982273 -0.18557803
2.1130991 -0.007265402 -0.19401892
2.1030047 0.084833123 -0.2182437
2.0334084 0.082025677 -0.24702643
2.0149555 0.081281304 -0.28043544
2.1243534 -0.015127563 -0.082279891
2.1225667 -0.01511484 -0.11982498
2.1660037 -0.015386349 -0.16054779
2.1406555 0.078494377 -0.18420719
2.1309824 -0.015137574 -0.19566469
2.0635417 0.075666726 -0.21411811
2.025759 0.074281298 -0.24606241
2.0013826 0.073387459 -0.27850711
2.1063099 -0.021616748 -0.081583254
2.1085317 -0.021639552 -0.11903592
2.1659446 -0.022190962 -0.16054779
2.126951 0.071301587 -0.1830077
2.128933 -0.021811763 -0.19548182
2.0737102 0.069516808 -0.21514951
2.0180452 0.067650758 -0.24509841
2.003583 0.067165941 -0.27878258
2.0962248 -0.029197445 -0.081196241
2.1204181 -0.029534422 -0.11971226
2.1638544 -0.030101653 -0.16039996
2.135165 0.063743301 -0.18369313
2.1407871 -0.029780764 -0.19657901
2.0659974 0.061678361 -0.2143244
2.0083568 0.059957564 -0.24389341
1.9939154 0.059526429 -0.2774052
2.1188056 0.055482972 -0.0445459
2.0821164 -0.036634196 -0.080654413
2.114306 -0.037200559 -0.11937409
2.1637294 -0.038032375 -0.16039996
2.1214406 0.055551969 -0.18249364
2.1346898 -0.037521936 -0.19603042
2.0622323 0.05400154 -0.21391183
1.9787918 0.051816575 -0.24027839
1.9822388 0.051906832 -0.27575234
2.1189694 0.048826285 -0.0445459
2.0680046 -0.042885121 -0.080112591
2.0942149 -0.043428652 -0.11824686
2.1396701 -0.04433392 -0.15862595
2.1255889 0.048978809 -0.18283634
2.1445172 -0.044434354 -0.19694474
2.0643804 0.047568418 -0.21411811
2.0087185 0.046285827 -0.24389341
1.9982353 0.046044268 -0.27795616
2.2262588 0.14915599 -0.42837876
2.2323864 0.14952739 -0.46892291
2.1353741 0.041374199 0.031016063
2.1595831 0.041843265 -0.0070874202
2.1371269 0.041408163 -0.044924121
2.0858147 -0.050903272 -0.080809221
2.1100113 -0.051493775 -0.11914864
2.1454751 -0.052321784 -0.15906945
2.1138005 0.040956199 -0.18180822
2.1702235 -0.052925326 -0.19932197
2.0406735 0.039539319 -0.21164276
2.0049045 0.038846273 -0.24341141
1.9845266 0.038451437 -0.27602783
2.253917 0.14275242 -0.35394385
2.2357228 0.14156091 -0.3906149
2.2561936 0.14285707 -0.43403515
2.2211981 0.14060232 -0.46646139
2.1175153 0.033264685 0.030754693
2.103729 0.033048112 -0.0069036726
2.1432621 0.033669148 -0.045050196
2.0676346 -0.058043096 -0.080112591
2.0938401 -0.058778744 -0.11824686
2.1173565 -0.059401914 -0.15699977
2.1079593 0.033114564 -0.18129414
2.0547283 0.03227834 -0.21308672
1.9851816 0.031185811 -0.2410014
1.9846543 0.031177528 -0.27602783
2.1794748 0.13001919 -0.34217671
2.1319873 0.12714893 -0.37240681
2.1233783 0.12663548 -0.40839276
2.1161826 0.12616928 -0.44430754
2.1036255 0.0253348 0.030551404
2.1018362 0.025313249 -0.00689711
2.1413717 0.025789391 -0.045008171
2.0773954 -0.065937981 -0.080499612
2.101594 -0.066706054 -0.11869775
2.1290858 -0.067541465 -0.15788677
2.1160364 0.025484268 -0.18197957
2.0508544 0.024699254 -0.21267416
2.0011647 0.024100823 -0.2429294
1.9827744 0.023879342 -0.27575234
2.110889 0.11816493 -0.33133852
2.1048985 0.11779274 -0.36759713
2.1002953 0.11753514 -0.40386763
2.1009953 0.11753754 -0.4410255
2.0916965 0.01861915 0.030377155
2.0819063 0.018532002 -0.0068314858
2.1454413 0.019097554 -0.045092218
2.077178 -0.072463974 -0.080499612
2.0933917 -0.073029593 -0.11824686
2.1208897 -0.073951825 -0.15729544
2.1021581 0.018712271 -0.18078008
2.0250616 0.018026002 -0.20999253
1.9714504 0.017548783 -0.23931438
1.9768971 0.017597266 -0.27492592
2.0737603 0.10955232 -0.32545495
2.0580373 0.10868569 -0.35935196
2.0594649 0.10876108 -0.39594868
2.0563951 0.10856297 -0.4315896
2.0837517 0.01091069 0.030260991
2.09796 0.010985084 -0.0068839849
2.1215024 0.011108356 -0.044587925
2.0988657 -0.080923691 -0.081351049
2.0871239 -0.080470972 -0.11790869
2.1106391 -0.081340738 -0.15655626
2.1340945 0.011174288 -0.18352176
2.045007 0.010707819 -0.21205533
1.9853992 0.010395708 -0.2410014
1.9690247 0.010309969 -0.27382401
2.0465188 0.10059282 -0.32111967
2.0151281 0.09901461 -0.35179389
2.048079 0.10063368 -0.39368612
2.0352728 0.099968828 -0.42707679
2.1037736 0.004406231 0.030551404
2.0719843 0.0043396503 -0.0067986734
2.121527 0.0044434145 -0.044587925
2.0986011 -0.08751706 -0.081351049
2.1048164 -0.087776259 -0.11892319
2.1163516 -0.088220298 -0.15699977
2.1221631 0.0044447472 -0.18249364
2.0430412 0.0042790314 -0.21184903
1.9715241 0.0041292426 -0.23931438
1.9730092 0.0041323528 -0.27437496
2.0369558 0.093708992 -0.31957138
2.0213337 0.092954956 -0.35282454
2.0405369 0.093838051 -0.39217773
2.0297108 0.093304686 -0.42584601
2.0837777 -0.003273102 0.030260991
2.093986 -0.003289137 -0.0068708602
2.1135306 -0.0033198365 -0.044419829
2.1002626 -0.095298819 -0.081428453
2.0925121 -0.094947137 -0.11824686
2.1430833 0.090796128 -0.14645749
2.1120291 -0.09579578 -0.1567041
2.1361136 -0.0033553089 -0.18369313
2.0510006 -0.0032216171 -0.21267416
1.9993221 -0.003140443 -0.2426884
1.978954 -0.0031084495 -0.27520138
1.9918809 0.084320471 -0.31244913
2.0137868 0.085212588 -0.35145032
2.0212436 0.085528105 -0.38840678
2.0222161 0.085533909 -0.42420498
2.134861 -0.011178115 0.068844669
2.0717533 -0.010847683 0.030086743
2.0739603 -0.01085924 -0.006805236
2.1055062 -0.011024413 -0.044251729
2.0759461 -0.10182117 -0.080499612
2.09215 -0.10261594 -0.11824686
2.1334324 0.082554959 -0.1457763
2.1096716 -0.10343843 -0.15655626
2.1540205 -0.011278435 -0.18523532
2.0609214 -0.010790968 -0.21370555
1.9774576 -0.010353952 -0.24003738
1.9868529 -0.010403146 -0.27630329
2.0099463 0.077706285 -0.31523609
2.000304 0.077298544 -0.34904549
2.0078046 0.077588402 -0.38576713
2.0303402 0.078423753 -0.42584601
2.1088202 -0.018771391 0.068006665
2.0637007 -0.018369764 0.029970579
2.0879061 -0.018585226 -0.006851173
2.1134496 -0.018812597 -0.044419829
2.089529 -0.11016575 -0.081041433
2.1057181 -0.11101928 -0.11903592
2.1556561 0.075503282 -0.14727494
2.1431384 -0.11295466 -0.15906945
2.1400168 -0.019049084 -0.18403584
2.0489326 -0.018238308 -0.21246788
1.9853479 -0.017672315 -0.2410014
1.965012 -0.0174913 -0.27327305
1.9667747 0.068818852 -0.30842352
1.9690688 0.068864711 -0.34354872
2.0139644 0.070434853 -0.3868984
2.0149636 0.070434593 -0.42256397
2.1187449 -0.025516702 0.068328977
2.0656323 -0.024877053 0.029999619
2.0718386 -0.024951795 -0.0067986734
2.0893869 -0.025163136 -0.043915536
2.0971541 -0.1171756 -0.081351049
2.0874157 -0.11663147 -0.11802141
2.1718373 0.069239371 -0.14836486
2.1598713 -0.026012002 -0.1857494
2.0946167 -0.025226118 -0.2172123
1.9872679 -0.023933282 -0.24124239
2.0085247 -0.024189288 -0.27933353
1.9827803 0.063142844 -0.31090084
1.9653369 0.062553018 -0.34286162
1.9906181 0.063357666 -0.38237327
2.0288703 0.064539716 -0.42543575
2.0655274 -0.032447807 0.029999619
2.0877311 -0.032796614 -0.006851173
2.1012766 -0.033009399 -0.044167683
2.0787559 -0.12379204 -0.080654413
2.1208601 -0.1262994 -0.11993771
2.1501365 0.060659748 -0.14686622
2.1557767 -0.033865556 -0.18540668
2.1124117 -0.033184323 -0.21906883
1.9871668 -0.031216823 -0.24124239
1.9688088 -0.030928433 -0.27382401
1.9810233 0.055819511 -0.31059116
1.9754004 0.055626571 -0.34457937
1.9869102 0.055950686 -0.3816191
1.9840893 0.055836592 -0.41599986
2.067394 -0.040056866 0.030028662
2.0795984 -0.040293336 -0.0068249232
2.1211193 0.05206139 -0.032034826
2.0991423 -0.040672004 -0.044125658
2.108206 -0.13330194 -0.081815466
2.152602 0.052834108 -0.10885289
2.1084259 -0.13331583 -0.11926137
2.1682971 0.053219333 -0.14809237
2.1675918 -0.041998252 -0.18643481
2.1460884 -0.041581608 -0.22257558
1.9949791 -0.038653791 -0.24220639
1.9944295 -0.03864314 -0.2774052
1.9752887 0.048413087 -0.30966216
1.9499851 0.047758859 -0.34011322
1.9497948 0.047754195 -0.37445432
1.9588411 0.047941551 -0.41066653
2.0783925 -0.046802301 0.067039751
2.0712564 -0.046641607 0.030086743
2.0674648 -0.046556223 -0.0067855488
2.1072772 0.04509794 -0.031823475
2.0830119 -0.046906322 -0.043789461
2.0963907 0.044864956 -0.068827622
2.1197414 -0.14071867 -0.082279891
2.1387784 0.045772098 -0.10814606
2.1504996 0.04602294 -0.14686622
2.1714334 -0.048897445 -0.18677752
2.1578801 -0.048592243 -0.22381325
2.0206518 -0.045502067 -0.24533941
2.0022199 -0.04508701 -0.27850711
1.9714803 0.042122889 -0.30904284
1.9698238 0.042053103 -0.34354872
1.9558262 0.041754276 -0.37558559
1.955068 0.041703951 -0.40984601
2.2439895 0.14621364 -0.51065534
2.2216575 0.14468065 -0.54458177
2.2336771 0.14534596 -0.58664894
2.220042 0.1443809 -0.62182605
2.122169 -0.055570859 0.068457894
2.0870645 -0.054651614 0.030319074
2.1032677 -0.05507591 -0.0069036726
2.1094279 0.03740954 -0.031853668
2.0908215 -0.054749992 -0.043957561
2.1165271 0.03753544 -0.06948375
2.1351604 -0.14960445 -0.082899116
2.1489174 0.038109865 -0.10865094
2.1725993 0.038529847 -0.14836486
2.1612799 -0.056595013 -0.18592075
2.171608 -0.056865465 -0.2252572
2.0383344 -0.053375572 -0.24750842
2.007982 -0.05258077 -0.27933353
1.9558167 0.034617037 -0.30656555
1.9601148 0.03465889 -0.34183097
1.9481108 0.034446634 -0.37407723
1.9375932 0.034226835 -0.40615371
2.2308836 0.13715027 -0.50755513
2.222173 0.1365369 -0.54458177
2.1975055 0.13490574 -0.57701516
2.2224789 0.13636102 -0.62236446
2.0788546 -0.062062021 0.030202908
2.087059 -0.062306955 -0.006851173
2.1235478 0.029874763 -0.032065019
2.0706201 -0.061816189 -0.043537315
2.1026595 0.029580897 -0.069024459
2.1550345 0.030317727 -0.10895387
2.1567645 0.030342067 -0.14727494
2.1610579 -0.064516112 -0.18592075
2.1594543 -0.064468242 -0.22401953
2.1591821 -0.064460114 -0.2622095
2.0038157 -0.059821814 -0.27878258
1.9559305 0.027448379 -0.30656555
1.9464382 0.027281191 -0.33942613
1.9423321 0.027223641 -0.37294593
1.9416202 0.02717977 -0.40697423
2.2313714 0.12897275 -0.50755513
2.2284768 0.12872742 -0.54600739
2.2037795 0.12718499 -0.57853627
2.2133489 0.12765974 -0.61967254
2.0777884 -0.068564214 0.067039751
2.0866442 -0.06885644 0.030319074
2.1048429 -0.06945698 -0.0069102347
2.1276305 0.023247 -0.032125406
2.0844049 -0.068782546 -0.043831486
2.1167336 0.02312794 -0.06948375
2.1471298 0.023460055 -0.10854996
2.1608398 0.023609852 -0.14754742
2.1612294 -0.07131765 -0.2242258
2.1669064 -0.07150498 -0.26317352
2.029356 -0.066966012 -0.28236377
1.9619343 0.021368073 -0.30749455
1.9622755 0.021337535 -0.34217453
1.9522282 0.021228282 -0.37483141
1.9397388 0.021058615 -0.40656397
2.1129718 0.11547019 -0.48053864
2.1221793 0.11589908 -0.51987123
2.1693959 0.11836381 -0.56940949
2.1945057 0.11965699 -0.61428881
2.0895088 -0.076618724 0.067426518
2.0783839 -0.076210789 0.030202908
2.0945811 -0.076804712 -0.0068774228
2.1057045 0.015288975 -0.031793281
2.0801423 -0.076275267 -0.043747436
2.1247997 0.01542762 -0.069746196
2.1332197 0.015488755 -0.10784312
2.1688929 0.015747771 -0.14809237
2.1668096 0.1108655 -0.21223845
2.1788454 -0.079894543 -0.22608232
2.1904387 -0.080319643 -0.26606554
2.0449338 -0.07498423 -0.28456759
1.9461929 0.014062864 -0.30501723
1.9367276 0.013960666 -0.33770838
1.9464006 0.014030391 -0.37370011
1.9241436 0.01383637 -0.4032819
2.0841634 0.10623571 -0.47389525
2.087666 0.10634118 -0.51131761
2.0905967 0.10638072 -0.5486207
2.1603031 0.10985215 -0.60459799
2.071238 -0.083551504 0.066846363
2.0880814 -0.084230952 0.030348115
2.1002805 -0.084723055 -0.00689711
2.1237442 0.0076357895 -0.032065019
2.0878406 -0.084221236 -0.043915536
2.1268408 0.0076469234 -0.069811814
2.1452467 0.0077130999 -0.10844898
2.1489828 0.0077265329 -0.14672998
2.149307 0.10207318 -0.21048602
2.1841781 -0.088107392 -0.26534253
2.0525627 -0.082798161 -0.28566951
1.9640142 0.0069929319 -0.3078042
1.9623792 0.0069528604 -0.34217453
1.9425107 0.006882465 -0.37294593
1.9359261 0.0068253465 -0.40574345
2.0962279 0.099149026 -0.47655261
2.0899825 0.098780505 -0.51179284
2.0832424 0.098352633 -0.54659253
2.1048942 0.099301204 -0.58898503
2.0549886 -0.089363307 0.066330671
2.095798 -0.091137953 0.03046428
2.0960078 -0.091147073 -0.0068839849
2.0837624 0.00094567251 -0.031461157
2.097554 -0.091214307 -0.044125658
2.1028674 0.00095434289 -0.069024459
2.1093063 0.00095726509 -0.10663141
2.1509917 0.00097618316 -0.14686622
2.1171262 0.093916714 -0.16980016
2.1317203 0.094526835 -0.20873359
2.0443761 -0.08890181 -0.28456759
1.9422917 0.00081367022 -0.30439791
1.944659 0.00078072114 -0.33908257
1.9385945 0.00077828649 -0.37219176
1.9281081 0.00074042467 -0.40410241
2.0458694 0.090326399 -0.46503741
2.0650516 0.09110108 -0.50561517
2.0700116 0.091211312 -0.54304326
2.068634 0.091078252 -0.57875586
2.064631 -0.097365439 0.066652983
2.0874598 -0.098442011 0.030348115
2.0996552 -0.099017136 -0.00689711
2.1057491 -0.0067623463 -0.031793281
2.1031976 -0.099184193 -0.044251729
2.1188478 -0.0068044113 -0.069549359
2.1332648 -0.0068507097 -0.10784312
2.1749251 -0.0069844956 -0.1485011
2.1393678 0.087047987 -0.17155728
2.1320524 0.086713053 -0.20873359
1.9442576 -0.0063116043 -0.30470759
1.9347974 -0.0063146632 -0.33736485
1.9425126 -0.0063398439 -0.37294593
1.9398426 -0.0063649863 -0.40656397
2.0637255 0.083537258 -0.46902344
2.0614893 0.083374664 -0.50466478
2.0780644 0.083936043 -0.54507142
2.0708785 0.083573386 -0.57929426
2.0642602 -0.10493203 0.066652983
2.0950737 -0.10649837 0.03046428
2.0773067 -0.10559522 -0.0068249232
2.0697153 -0.014232731 -0.031249806
2.1068139 -0.10709515 -0.044335779
2.0948222 -0.014405385 -0.068762012
2.09128 -0.014381026 -0.10572261
2.1429598 -0.01473641 -0.14632127
2.1496336 0.079574972 -0.17235595
2.1025188 0.07779412 -0.20581289
1.9600281 -0.013546871 -0.30718488
1.9544636 -0.013542525 -0.34080032
1.9483685 -0.013500294 -0.37407723
1.9163171 -0.013311655 -0.40164089
2.0484254 0.075398847 -0.4654803
2.0676053 0.076032542 -0.5060904
2.0570912 0.075538054 -0.53949392
2.0538471 0.075347133 -0.57444882
2.0699086 -0.11173983 0.066846363
2.0987227 -0.11329529 0.030522361
2.1189034 -0.11438472 -0.0069627343
2.0816584 -0.020855054 -0.031430963
2.1164503 -0.11425229 -0.0445459
2.102762 -0.021066481 -0.069024459
2.1131954 -0.021171007 -0.10683336
2.166846 -0.021708507 -0.14795613
2.1538582 0.072956294 -0.17267543
2.1107101 0.071457885 -0.20659174
1.9580001 -0.01968454 -0.30687523
1.9465307 -0.019603211 -0.33942613
1.9365324 -0.019502521 -0.37181464
1.9280101 -0.019450348 -0.40410241
2.0291598 0.068306997 -0.46105137
2.0542426 0.069079556 -0.50276399
2.0534513 0.068945311 -0.53847986
2.0598488 0.069088124 -0.57606399
2.1034112 -0.12128183 0.06794221
2.1002898 -0.12110186 0.030551404
2.1004999 -0.12111397 -0.0069036726
2.0735695 -0.028375123 -0.031310193
2.1160173 -0.1220087 -0.0445459
2.0586984 -0.028171625 -0.067580983
2.0831447 -0.02850615 -0.10531871
2.1727874 0.065625608 -0.1355437
2.1368244 -0.029240714 -0.14591254
2.1381693 0.064580031 -0.17139754
2.0831037 0.062880464 -0.20386574
1.9559391 -0.026833732 -0.30656555
1.954326 -0.02684572 -0.34080032
1.9580512 -0.02689689 -0.37596267
1.9377123 -0.02665133 -0.40615371
2.0235481 0.060693879 -0.45972267
2.0486565 0.061375391 -0.50133836
2.0517564 0.061360739 -0.53797281
2.0677896 0.061767988 -0.57821751
2.109812 -0.12941115 0.03069661
2.1160119 -0.12979144 -0.0069561717
2.0714521 -0.035940252 -0.03128
2.1315224 -0.13074282 -0.044882096
2.0725718 -0.03595968 -0.068040274
2.0890176 -0.036245015 -0.10562164
2.1969583 0.058296893 -0.13703731
2.1526632 -0.037349291 -0.14700246
2.1224484 0.056319751 -0.17011964
2.0872998 0.055350613 -0.20425516
1.9597787 -0.034071118 -0.30718488
1.9364848 -0.033699956 -0.33770838
1.9402651 -0.033765744 -0.37256885
1.919987 -0.033446372 -0.40246141
2.0276563 0.05337945 -0.46060848
2.0372152 0.053559933 -0.49848717
2.0403636 0.053535793 -0.53493053
2.0545235 0.05383556 -0.57444882
2.0714076 -0.13467792 0.030144826
2.1055429 -0.13689733 -0.0069233598
2.0653086 -0.043406203 -0.031189419
2.1270382 -0.13829491 -0.044798046
2.0704274 -0.04351379 -0.067974657
2.0868738 -0.043859437 -0.10552066
2.159241 0.049377177 -0.13467245
2.1305678 -0.044777751 -0.14550382
2.1345992 0.048813675 -0.17107806
2.0934584 0.047836322 -0.20483932
1.9635916 -0.041337013 -0.3078042
1.9540768 -0.041170828 -0.34080032
1.947983 -0.041042436 -0.37407723
1.9296367 -0.040689588 -0.40451267
2.0414875 0.04625662 -0.46370873
2.0451667 0.046268564 -0.50038797
2.0482826 0.046231754 -0.53695875
2.0547068 0.046304993 -0.57444882
2.1211464 0.041876271 0.04321789
2.0889306 -0.14240891 0.030406198
2.0535927 0.040542606 0.0054132021
2.125056 -0.1448717 -0.0069889841
2.0631628 -0.049846038 -0.031159226
2.1126287 -0.14402449 -0.044503879
2.0642855 -0.049873166 -0.06777782
2.1254687 0.041961603 -0.094899908
2.0867255 -0.050415318 -0.10552066
2.169364 0.042790316 -0.13529478
2.1204429 -0.051229924 -0.14482263
2.1187961 0.041792877 -0.16980016
2.0736973 0.040867101 -0.20289217
1.9713532 -0.047696773 -0.30904284
1.9559075 -0.04735722 -0.34114388
1.949808 -0.047209535 -0.37445432
1.9275424 -0.046704095 -0.40410241
2.014323 0.03931012 -0.45750821
2.0375326 0.039691914 -0.49848717
2.0426149 0.039683927 -0.53543758
2.0509906 0.039775029 -0.57337207
2.1072905 0.033876617 0.04293276
2.0917225 0.033626344 0.0055133491
2.1304953 -0.15308948 -0.0070086713
2.0609672 -0.057351943 -0.031129034
2.0640888 -0.057438813 -0.06777782
2.1635656 0.034781285 -0.09659455
2.0725501 -0.05767427 -0.10481382
2.175494 0.034935068 -0.13566817
2.1202409 -0.059001394 -0.14482263
2.140862 0.034378931 -0.17155728
2.0738332 0.033266347 -0.20289217
1.9533892 -0.054426536 -0.30625588
1.9695073 -0.054910034 -0.34354872
1.9692556 -0.054903012 -0.37822524
1.9371419 -0.054041516 -0.40615371
1.985202 0.031463385 -0.45086482
2.0298944 0.032100841 -0.49658635
2.0485499 0.03228857 -0.53695875
2.037641 0.032045484 -0.56960344
2.1113853 0.027307929 0.043014225
2.0758193 0.026847929 0.0054711821
2.0627756 -0.063888282 -0.031159226
2.0718901 -0.064170569 -0.068040274
2.1336966 0.027596492 -0.095256671
2.0763516 -0.064308755 -0.10501578
2.1755929 0.02810039 -0.13566817
2.1180506 -0.065600254 -0.14468639
2.1210251 0.02739558 -0.1699599
2.0798984 0.026828075 -0.20347631
2.0045567 -0.062155161 -0.31430709
1.9850798 -0.061585918 -0.34629712
1.9729997 -0.061211143 -0.37897944
1.9741366 -0.061280902 -0.41394857
1.9638389 0.024953961 -0.44599301
2.0105596 0.025477434 -0.49183434
2.0370343 0.025706239 -0.53391647
2.0531399 0.025837803 -0.57391047
2.0974748 0.01943941 0.042729095
2.0619042 0.019109743 0.0054342858
2.0445404 -0.070825204 -0.03088749
2.0616524 -0.07141798 -0.06771221
2.1577585 0.019998122 -0.09632697
2.076102 -0.071918532 -0.10501578
2.1716893 0.020089325 -0.13541923
2.1098194 -0.073086537 -0.14414142
2.1430399 0.019824304 -0.171717
2.0859542 0.019259818 -0.20406045
2.0082648 -0.069638759 -0.31492645
2.0183151 -0.070022531 -0.35213745
2.0395024 -0.07075759 -0.39180064
2.0286748 -0.070417397 -0.42543575
1.9385638 0.01752674 -0.44023541
1.991213 0.017933235 -0.4870823
2.0061615 0.017962812 -0.5258038
2.0243292 0.018054817 -0.56583482
2.083535 0.011673233 0.042443961
2.0799601 0.011653204 0.0054817237
2.0862315 -0.079926051 -0.031521544
2.0913386 -0.080121711 -0.068696395
2.161813 0.012111794 -0.096505359
2.0977802 -0.080368496 -0.10612652
2.1697521 0.012118403 -0.13529478
2.1095374 -0.080818921 -0.14414142
2.1411047 0.011958402 -0.17155728
2.1019344 0.011702944 -0.20561817
2.0257661 -0.077680357 -0.31771338
2.0318267 -0.07794828 -0.35454229
2.0392292 -0.078232266 -0.39180064
2.0479634 -0.078603141 -0.42953831
1.938615 0.010421432 -0.44023541
1.967953 0.010510447 -0.48137987
1.9849329 0.010497199 -0.5202263
2.0301602 0.010665514 -0.56744993
2.0795646 0.0040288689 0.042362496
2.049989 0.0039715697 0.0054026605
2.0719385 -0.086984769 -0.031310193
2.0730565 -0.0870317 -0.068105884
2.1338708 0.0041340794 -0.095256671
2.0695319 -0.086883731 -0.10471284
2.1478248 0.0041236267 -0.13392565
2.0892909 -0.087713264 -0.14277904
2.1391404 0.0041069537 -0.17139754
2.0621533 0.003923154 -0.20172389
2.0610023 -0.086597703 -0.32328731
2.0689294 -0.086966962 -0.36106971
2.0526657 -0.086283311 -0.39444029
2.051573 -0.08627326 -0.43035883
1.9347395 0.0033093099 -0.43934962
1.9660356 0.0032942132 -0.48090467
1.9694808 0.0031968639 -0.51616997
1.9801053 0.0031449907 -0.55345213
2.0619915 -0.0024831202 0.0054342858
2.0936301 -0.094485253 -0.031642314
2.070776 -0.093453839 -0.068040274
2.1378694 -0.0025744953 -0.095435053
2.1051662 -0.095005877 -0.10653043
2.1617999 -0.0026410436 -0.1347969
2.1129251 -0.095356025 -0.1444139
2.1590788 -0.0026377195 -0.1729949
2.1119177 -0.0026169633 -0.20659174
2.044929 -0.092358902 -0.32081002
2.0469952 -0.092488021 -0.35729066
2.0484602 -0.092554204 -0.39368612
2.0630248 -0.093248352 -0.43282035
1.921088 -0.0027493213 -0.43624938
1.9582653 -0.0028708833 -0.47900388
1.9481999 -0.0029581347 -0.51059246
1.9724007 -0.0030637311 -0.55129862
2.0699682 -0.010079635 0.0054553691
2.0653062 -0.10079344 -0.031219613
2.094378 -0.10221224 -0.068827622
2.0978858 -0.010215579 -0.09365122
2.1107891 -0.10301316 -0.10683336
2.1458068 -0.01048638 -0.13380118
2.0826666 -0.10164068 -0.14237031
2.1610484 -0.010560865 -0.17315464
2.1118941 -0.010357512 -0.20659174
2.0426033 -0.099756934 -0.32050034
2.0623858 -0.10075916 -0.36003906
2.0677249 -0.10102001 -0.39745703
2.0724449 -0.10128686 -0.43487164
1.9405682 -0.0098898374 -0.4406783
1.9543562 -0.010028328 -0.47805345
1.9501106 -0.010108653 -0.51109952
1.9608194 -0.010232611 -0.54806834
2.0459185 -0.017461553 0.0053921188
2.072911 -0.10878169 -0.031340387
2.0860047 -0.10946881 -0.068565175
2.1078241 -0.017989907 -0.094097182
2.0904503 -0.10970212 -0.10582359
2.1537383 -0.018419368 -0.13429904
2.0802875 -0.10916878 -0.14223407
2.1570079 -0.018447332 -0.17283517
2.1377175 -0.018319668 -0.20912303
2.0501165 -0.10765725 -0.32173899
2.0620027 -0.10831751 -0.36003906
2.0477266 -0.10756759 -0.39368612
2.0622859 -0.10836847 -0.43282035
1.9171157 -0.016797256 -0.43536359
1.9426504 -0.017088801 -0.47520226
1.9365183 -0.017136265 -0.50755024
1.9569165 -0.01738508 -0.54699159
2.0538528 -0.023982305 0.0054132021
2.0825424 -0.11584875 -0.03149135
2.0996213 -0.11679882 -0.069024459
2.0977678 -0.024495088 -0.09365122
2.0960786 -0.11660174 -0.10612652
2.1496778 -0.025138753 -0.13405012
2.1728873 -0.025410168 -0.17411307
2.157553 -0.025268506 -0.21107017
2.0517411 -0.11420715 -0.32204866
2.0793574 -0.11578077 -0.36313099
2.0767949 -0.1156381 -0.39934251
2.0756164 -0.1156088 -0.43569216
1.9170535 -0.02281996 -0.43536359
1.9697834 -0.023516409 -0.48185509
1.9480621 -0.023359099 -0.51059246
1.9530001 -0.023486495 -0.54591483
2.0517514 -0.03147921 0.0054079313
2.0701263 -0.12277053 -0.031310193
2.0792248 -0.12331013 -0.068368331
2.1076527 -0.03233688 -0.094097182
2.0856674 -0.1236922 -0.10562164
2.1495712 -0.033017546 -0.13405012
2.1628127 -0.033220936 -0.17331438
2.1554556 -0.033145562 -0.21087545
2.4679384 -0.14653601 -0.51815367
1.9208571 -0.029906884 -0.43624938
1.9619141 -0.030614622 -0.47995427
1.9363568 -0.030317226 -0.50755024
1.9586787 -0.030735105 -0.54753
2.0572014 -0.039105099 0.04191443
2.0596209 -0.039151087 0.005429015
2.1055872 -0.13261981 -0.031853668
2.1226485 -0.1336944 -0.069811814
2.0955341 -0.039833758 -0.093562029
2.1111155 -0.13296801 -0.10693433
2.1414528 -0.04074401 -0.13355225
2.1786222 -0.041451208 -0.17459227
2.1573098 -0.041083377 -0.21107017
2.5201316 -0.15890642 -0.52923059
1.9031848 -0.036609389 -0.43226334
1.9579039 -0.037730329 -0.47900388
1.938167 -0.037451502 -0.50805724
1.9489238 -0.037727412 -0.54483807
2.0810575 -0.04609919 0.042403229
2.0874805 -0.04624147 0.0055028074
2.1134222 0.045450866 -0.019407161
2.0891969 -0.13817823 -0.031612121
2.1107481 0.045393359 -0.056796499
2.0982831 -0.13877919 -0.069024459
2.0934012 -0.046372615 -0.093472838
2.1293404 -0.047205918 -0.13280545
2.1645296 -0.047986038 -0.17347412
2.1472201 -0.047639795 -0.2100966
1.9303583 -0.043199126 -0.43846384
1.9791403 -0.04435993 -0.48423108
1.951579 -0.043844409 -0.51160657
1.9545728 -0.043979932 -0.54645324
2.0708802 -0.053468283 0.042199563
2.111588 0.037669044 0.017914403
2.0573072 -0.053117845 0.0054237442
2.1135747 0.037704483 -0.019407161
2.0926661 -0.14611317 -0.031672508
2.1428835 0.038227331 -0.057657052
2.0932171 -0.054045003 -0.093472838
2.1131895 -0.054597575 -0.13180973
2.166332 -0.055970605 -0.17363384
2.1549904 -0.055715211 -0.21087545
2.6478703 -0.18506414 -0.55630749
1.9126399 -0.049816918 -0.43447781
1.9614859 -0.051157683 -0.47995427
1.9417351 -0.050744299 -0.50907135
1.9409199 -0.05079079 -0.54268456
2.1210589 0.030061908 0.055584509
2.0646741 -0.060881272 0.042077363
2.1097121 0.029901091 0.017897438
2.0730917 -0.061129484 0.0054659112
2.131696 0.030212669 -0.019572405
2.1410103 0.03034468 -0.057603266
2.1009936 -0.061952226 -0.093829609
2.1049941 -0.06210696 -0.13131185
2.1581414 -0.063675046 -0.1729949
2.1726782 -0.064141907 -0.21262787
2.6413176 -0.19433692 -0.55507672
1.9377878 -0.057579812 -0.44023541
1.9709945 -0.058635388 -0.48233029
1.9473375 -0.058033664 -0.51059246
1.948422 -0.058134053 -0.54483807
2.1171443 0.023354162 0.055479731
2.0484843 -0.066845603 0.041751496
2.0877979 0.023030439 0.017710831
2.0608959 -0.067250609 0.0054342858
2.1057832 0.023228833 -0.019333718
2.1510909 0.023728622 -0.057872191
2.0868099 -0.068096228 -0.093205266
2.1007984 -0.068589404 -0.13106292
2.1360126 -0.069739118 -0.1712378
2.1485929 -0.07018739 -0.21029131
2.6348388 -0.20218459 -0.55384594
1.9336987 -0.063539162 -0.43934962
1.9824506 -0.065210365 -0.48518151
1.9568137 -0.064469643 -0.51312768
1.9366789 -0.063873954 -0.5416078
2.0611458 -0.07482224 0.078584485
2.1252129 0.015653184 0.055689286
2.044229 -0.07420814 0.041670032
2.1018674 0.015481234 0.01782958
2.0626342 -0.074876271 0.0054395567
2.1358521 0.015731547 -0.019609127
2.1431665 0.01578542 -0.057657052
2.0985265 -0.076179206 -0.093740411
2.0905588 -0.075926512 -0.13044059
2.1377349 -0.077639885 -0.17139754
2.6262755 -0.21121272 -0.55220497
1.9607395 -0.071622826 -0.44555011
2.0307341 -0.074250601 -0.49706155
1.966231 -0.071995236 -0.51566291
1.9460561 -0.07132455 -0.54429972
2.0648518 -0.082535863 0.078736782
2.0872693 0.0077232271 0.054693896
2.0639234 -0.082498752 0.042077363
2.0719113 0.0076664002 0.017575115
2.0803316 -0.083154619 0.0054869945
2.1098967 0.0078069521 -0.019370439
2.121218 0.0078488439 -0.05706542
2.078269 -0.083072178 -0.092848495
2.0862775 -0.083428763 -0.13019165
2.1215 -0.08483728 -0.17011964
2.6274343 -0.22100115 -0.55261517
2.0306196 -0.081629016 -0.46149427
2.0595655 -0.082864627 -0.50418961
2.0394113 -0.082160696 -0.53493053
1.9804246 -0.079853572 -0.55399048
2.0246482 -0.087300465 0.077213831
2.1232708 0.0011859511 0.055636898
2.0416789 -0.088034801 0.0416293
2.0819247 0.0011628573 0.017659938
2.0780618 -0.089603595 0.0054817237
2.1039109 0.0011751377 -0.019315358
2.1332278 0.0011915126 -0.057388127
2.1039479 -0.090719767 -0.094007991
2.1079421 -0.090928853 -0.13156079
2.12919 -0.091845408 -0.17075859
2.0498383 -0.088852584 -0.46592319
2.0670586 -0.089671314 -0.5060904
2.0372105 -0.088483334 -0.53442353
1.9974833 -0.086827695 -0.55883592
2.0702312 -0.096869081 0.078965224
2.0413425 -0.095517337 0.0416293
2.0639157 -0.0064118686 0.017507257
2.0877085 -0.097686872 0.0055080783
2.0679028 -0.0064242552 -0.018984867
2.1092267 -0.0065526343 -0.056742713
2.1235595 -0.099364392 -0.094899908
2.1235461 -0.099400908 -0.13255651
2.1049418 -0.098530062 -0.16884175
2.0845664 -0.098013856 -0.47389525
2.0744784 -0.097612113 -0.50799119
2.0697253 -0.097497061 -0.54304326
2.0433285 -0.096325092 -0.57175696
2.02595 -0.10224016 0.077289976
2.0389817 -0.10289781 0.041588563
2.0618784 -0.013962912 0.017490294
2.0933287 -0.10564046 0.0055238907
2.0918639 -0.014165971 -0.019205194
2.1291809 -0.014418679 -0.057280559
2.0992353 -0.10593853 -0.093829609
2.101238 -0.10607637 -0.13118739
2.0802972 -0.10545603 -0.47300947
2.0760469 -0.10531322 -0.50846642
2.0770826 -0.10547479 -0.54507142
2.0756645 -0.10547543 -0.58090937
2.0366516 -0.10919589 0.041547831
2.0738235 -0.020559369 0.01759208
2.0869951 -0.11189508 0.0055080783
2.08181 -0.020638546 -0.01911339
2.095139 -0.020770688 -0.05636622
2.1088679 -0.11306779 -0.094275564
2.1068742 -0.11299779 -0.13156079
2.0877459 -0.11241039 -0.47478104
2.0854053 -0.11235738 -0.51084244
2.0690136 -0.11158287 -0.54304326
2.0791698 -0.11220337 -0.58198613
2.0661824 -0.11837544 0.042158831
2.0617356 -0.027997242 0.017490294
2.0985515 -0.12022992 0.0055397036
2.0897193 -0.028377244 -0.019186834
2.1110415 -0.028666787 -0.056796499
2.080513 -0.11919647 -0.093026884
2.0765531 -0.11900596 -0.12969379
2.0912142 -0.1202856 -0.47566682
2.0811007 -0.11977676 -0.50989199
2.0917683 -0.12050062 -0.54912776
2.0922053 -0.12059908 -0.58575475
2.0809762 -0.035887513 0.05453673
2.0616193 -0.035553694 0.017490294
2.0761375 -0.12658185 0.0054817237
2.0836024 -0.035932805 -0.019131752
2.0889335 -0.036024742 -0.056204867
2.1039939 -0.12828024 -0.094097182
2.1059895 -0.1284388 -0.13156079
2.1257999 -0.13009389 -0.48363888
2.0961604 -0.12835346 -0.51369363
2.0893815 -0.12804818 -0.5486207
2.0917492 -0.12826657 -0.58575475
2.076833 -0.043430831 0.054431953
2.0834696 -0.043569617 0.017676901
2.1175721 -0.13690004 0.0055924123
2.0754588 -0.043402094 -0.019058309
2.0927851 -0.043764424 -0.056312438
2.1194603 -0.13702211 -0.094810717
2.4250317 -0.15732969 -0.55184436
2.08986 -0.13565788 -0.51226801
2.1024122 -0.13658322 -0.55217004
2.1143305 -0.13743162 -0.5922153
2.0706899 -0.049810927 0.054274786
2.0513327 -0.049345285 0.017405471
2.1131406 -0.1432813 0.0055818707
2.0633161 -0.049633548 -0.018948145
2.0866413 -0.05019464 -0.056151085
2.1170259 -0.14354475 -0.094721526
2.4984677 -0.16997787 -0.56867433
2.1126823 -0.14380588 -0.51797044
2.1116238 -0.1438449 -0.55470526
2.0850625 -0.14210866 -0.58413965
2.0784876 -0.057621676 0.054484341
2.1031163 -0.058304448 0.017846545
2.0911083 -0.057971556 -0.019205194
2.0904403 -0.05795303 -0.056258652
2.5659151 -0.18401699 -0.58417553
2.0542827 -0.064486563 0.053855676
2.0709054 -0.065008372 0.017575115
2.0509033 -0.064380482 -0.018837981
2.070231 -0.064987198 -0.055720806
2.5905061 -0.19532666 -0.58993316
2.072053 -0.071561024 0.054327175
2.100672 -0.072549418 0.01782958
2.0746756 -0.0716516 -0.019058309
2.0879993 -0.072111748 -0.056204867
2.0478024 -0.078239024 0.05369851
2.0744119 -0.07925567 0.017609045
2.0604098 -0.078720711 -0.018929785
2.0777318 -0.079382516 -0.055935945
2.033519 -0.085158505 0.053331789
2.0761056 -0.08694192 0.017626008
2.0581093 -0.086188279 -0.018911423
2.0934072 -0.087666467 -0.05636622
2.0592062 -0.092715621 0.054012842
2.0878096 -0.094003491 0.017727794
2.0818031 -0.093733042 -0.019131752
2.1170883 -0.095321767 -0.057011638
2.0388832 -0.099289894 0.053488955
2.0854535 -0.10155778 0.017710831
2.0574749 -0.10019528 -0.018911423
2.0947587 -0.10201094 -0.056420006
2.0544782 -0.10759863 0.053908065
2.0890617 -0.10940987 0.017744759
2.0810602 -0.1089908 -0.019131752
2.0923743 -0.10958336 -0.05636622
2.046145 -0.11360908 0.05369851
2.0927014 -0.11619405 0.017778687
2.0667295 -0.11475199 -0.019003227
2.0860312 -0.11582369 -0.056204867
2.0417233 -0.1208715 0.053593732
2.0962543 -0.12409978 0.017812617
2.076277 -0.12291712 -0.01909503
2.1255083 -0.12583163 -0.057280559
2.1031229 -0.1322435 0.055217788
2.1057653 -0.13240963 0.017897438
2.0877886 -0.13127926 -0.019205194
2.1110654 -0.13274291 -0.056904066
2.0727007 -0.13795923 0.054431953
2.1052659 -0.14012676 0.017897438
2.1032574 -0.13999307 -0.019352078
2.1045802 -0.14008112 -0.056742713
2.1187809 -0.14771357 0.018016189
2.0988171 -0.14632177 -0.019315358
