# .PCD v0.7 - Point Cloud Data file format
VERSION 0.7
FIELDS x y z normal_x normal_y normal_z curvature
SIZE 4 4 4 4 4 4 4
TYPE F F F F F F F
COUNT 1 1 1 1 1 1 1
WIDTH 255
HEIGHT 1
VIEWPOINT 0 0 0 1 0 0 0
POINTS 255
DATA ascii
-0.46279776 0.58202457 -0.5068379 0 0 0 4.3484152e-38
-0.4660666 0.5572567 -0.73732382 0 0 0 4.3484152e-38
-0.47660351 0.479146 -0.9622519 0 0 0 4.3484152e-38
-0.47126174 0.51962757 -1.1957489 0 0 0 4.3484152e-38
-0.41660202 0.56576061 -0.50645089 0 0 0 4.3484152e-38
-0.41754377 0.55882072 -0.73777473 0 0 0 4.3484152e-38
-0.41495979 0.57956123 -0.97023493 0 0 0 4.3484152e-38
-0.42957437 0.4718523 -1.1919088 0 0 0 4.3484152e-38
-0.36967444 0.5552702 -0.5062961 0 0 0 4.3484152e-38
-0.36926246 0.55822563 -0.73811287 0 0 0 4.3484152e-38
-0.3718363 0.54141712 -0.96786958 0 0 0 4.3484152e-38
-0.38518894 0.44564342 -1.1900802 0 0 0 4.3484152e-38
-0.32421184 0.58316898 -0.50761193 0 0 0 4.3484152e-38
-0.33084393 0.5366745 -0.73721111 0 0 0 4.3484152e-38
-0.33403087 0.51594257 -0.96639127 0 0 0 4.3484152e-38
-0.34205616 0.45967388 -1.1919088 0 0 0 4.3484152e-38
-0.28014266 0.55256939 -0.50668311 0 0 0 4.3484152e-38
-0.28607452 0.51204681 -0.73619658 0 0 0 4.3484152e-38
-0.28846765 0.49726772 -0.96550423 0 0 0 4.3484152e-38
-0.28775513 0.50213528 -1.1964804 0 0 0 4.3484152e-38
-0.22677815 0.58506489 -0.50823116 0 0 0 4.3484152e-38
-0.23760688 0.51293564 -0.73664749 0 0 0 4.3484152e-38
-0.23650265 0.52182579 -0.96786958 0 0 0 4.3484152e-38
-0.22838795 0.57588387 -1.2039778 0 0 0 4.3484152e-38
-0.18753481 0.56900311 -0.50784415 0 0 0 4.3484152e-38
-0.19677281 0.5087595 -0.7367602 0 0 0 4.3484152e-38
-0.19503641 0.52158642 -0.9683131 0 0 0 4.3484152e-38
-0.19520473 0.52048874 -1.1994063 0 0 0 4.3484152e-38
-0.13446212 0.59716892 -0.50923741 0 0 0 4.3484152e-38
-0.14578485 0.52509403 -0.73811287 0 0 0 4.3484152e-38
-0.14369655 0.53985786 -0.97023493 0 0 0 4.3484152e-38
-0.14511108 0.53085327 -1.2010521 0 0 0 4.3484152e-38
-0.084647417 0.60341454 -0.50977927 0 0 0 4.3484152e-38
-0.084820032 0.60234356 -0.74295998 0 0 0 4.3484152e-38
-0.085228443 0.60124874 -0.97540915 0 0 0 4.3484152e-38
-0.090171099 0.57051945 -1.2054408 0 0 0 4.3484152e-38
-0.038008213 0.63228226 -0.51117253 0 0 0 4.3484152e-38
-0.031722546 0.6705904 -0.74724346 0 0 0 4.3484152e-38
0.025591612 0.71896744 -0.51488787 0 0 0 4.3484152e-38
0.0068838596 0.60750771 -0.74408722 0 0 0 4.3484152e-38
0.048771858 0.56596661 -0.74217093 0 0 0 4.3484152e-38
-0.46011412 0.42639828 -1.1120974 0 0 0 4.3484152e-38
-0.41287363 0.42200089 -1.1122687 0 0 0 4.3484152e-38
-0.34882081 0.58557701 -0.27542815 0 0 0 4.3484152e-38
-0.3629086 0.4854641 -1.1182661 0 0 0 4.3484152e-38
-0.30527151 0.55109119 -0.27483982 0 0 0 4.3484152e-38
-0.31999719 0.4491539 -1.1156958 0 0 0 4.3484152e-38
-0.26929355 0.51350307 -0.27416742 0 0 0 4.3484152e-38
-0.27151525 0.49845791 -1.1204938 0 0 0 4.3484152e-38
-0.21332538 0.56376553 -0.27538612 0 0 0 4.3484152e-38
0.17630506 -0.42594814 -0.90385747 0 0 0 4.3484152e-38
-0.22398496 0.49336529 -1.1206652 0 0 0 4.3484152e-38
0.16741991 -0.69892788 -0.4618665 0 0 0 4.3484152e-38
0.21643925 -0.45423222 -0.68727463 0 0 0 4.3484152e-38
0.206043 -0.50505066 -0.89853543 0 0 0 4.3484152e-38
-0.17463326 0.49991131 -1.1218647 0 0 0 4.3484152e-38
0.21157074 -0.47745514 -1.1156545 0 0 0 4.3484152e-38
0.21385789 -0.68996811 -0.46256313 0 0 0 4.3484152e-38
0.24579763 -0.53351021 -0.68321657 0 0 0 4.3484152e-38
0.24759912 -0.52362823 -0.89779627 0 0 0 4.3484152e-38
-0.12176728 0.52791691 -1.124949 0 0 0 4.3484152e-38
0.24526429 -0.5350666 -1.1110829 0 0 0 4.3484152e-38
0.2534492 -0.68383312 -0.46310496 0 0 0 4.3484152e-38
0.27817273 -0.56463623 -0.6818639 0 0 0 4.3484152e-38
0.27636576 -0.57230949 -0.89469177 0 0 0 4.3484152e-38
-0.080232382 0.5273037 -1.1254631 0 0 0 4.3484152e-38
0.2731986 -0.58758259 -1.106877 0 0 0 4.3484152e-38
0.30047464 -0.67325878 -0.46387899 0 0 0 4.3484152e-38
0.32026625 -0.57956791 -0.68152577 0 0 0 4.3484152e-38
0.31719637 -0.59308243 -0.89380473 0 0 0 4.3484152e-38
0.31027222 -0.62586308 -1.104134 0 0 0 4.3484152e-38
0.34440327 -0.64787483 -0.46519485 0 0 0 4.3484152e-38
0.35945702 -0.57770252 -0.68208933 0 0 0 4.3484152e-38
0.35425019 -0.60097027 -0.89380473 0 0 0 4.3484152e-38
0.35390687 -0.60257149 -1.1070598 0 0 0 4.3484152e-38
0.390414 -0.64352036 -0.46573669 0 0 0 4.3484152e-38
-0.51288521 0.59367275 -0.66180134 0 0 0 4.3484152e-38
0.40274024 -0.58707142 -0.68208933 0 0 0 4.3484152e-38
-0.52400172 0.50682259 -0.88787305 0 0 0 4.3484152e-38
0.40680885 -0.56744957 -0.89705706 0 0 0 4.3484152e-38
0.39752388 -0.60997391 -1.1072427 0 0 0 4.3484152e-38
-0.4661293 0.58121777 -0.4295001 0 0 0 4.3484152e-38
0.44472718 -0.60227776 -0.46774918 0 0 0 4.3484152e-38
-0.46973729 0.55382729 -0.66008472 0 0 0 4.3484152e-38
0.45075369 -0.57515621 -0.68332934 0 0 0 4.3484152e-38
-0.47882211 0.48485851 -0.88678312 0 0 0 4.3484152e-38
0.4579165 -0.54194546 -0.89971811 0 0 0 4.3484152e-38
0.45580816 -0.55143452 -1.1136429 0 0 0 4.3484152e-38
-0.42377865 0.58767128 -0.42989379 0 0 0 4.3484152e-38
-0.42827499 0.55434513 -0.66038769 0 0 0 4.3484152e-38
0.51861191 -0.44711018 -0.69121993 0 0 0 4.3484152e-38
-0.42530465 0.5763607 -0.89345884 0 0 0 4.3484152e-38
-0.3724339 0.60846233 -0.19815698 0 0 0 4.3484152e-38
-0.37210071 0.61086559 -0.43087798 0 0 0 4.3484152e-38
-0.37836826 0.56566334 -0.66129649 0 0 0 4.3484152e-38
-0.38271892 0.53428459 -0.89100659 0 0 0 4.3484152e-38
-0.33212781 0.55029392 -0.19737196 0 0 0 4.3484152e-38
-0.32614684 0.5922966 -0.43048429 0 0 0 4.3484152e-38
-0.33821034 0.50757599 -0.65867108 0 0 0 4.3484152e-38
-0.3404181 0.49207115 -0.88855428 0 0 0 4.3484152e-38
-0.29320729 0.53256702 -0.19719081 0 0 0 4.3484152e-38
0.11283135 -0.39862823 -0.25660121 0 0 0 4.3484152e-38
-0.28392565 0.59631443 -0.43081236 0 0 0 4.3484152e-38
-0.29481745 0.52150822 -0.65968084 0 0 0 4.3484152e-38
-0.29678941 0.50796413 -0.89005286 0 0 0 4.3484152e-38
-0.24171495 0.55327225 -0.19761351 0 0 0 4.3484152e-38
0.15753651 -0.40316868 -0.25668526 0 0 0 4.3484152e-38
-0.23515403 0.59720421 -0.43107483 0 0 0 4.3484152e-38
-0.24838603 0.50860405 -0.65937793 0 0 0 4.3484152e-38
-0.2512908 0.48915291 -0.88923544 0 0 0 4.3484152e-38
-0.19125605 0.56586742 -0.19791543 0 0 0 4.3484152e-38
-0.18816543 0.58605576 -0.43094358 0 0 0 4.3484152e-38
-0.19476926 0.54291916 -0.66149843 0 0 0 4.3484152e-38
-0.19775212 0.52343559 -0.89209646 0 0 0 4.3484152e-38
0.19595957 -0.43953228 -1.047839 0 0 0 4.3484152e-38
0.22564721 -0.48596668 -0.25525641 0 0 0 4.3484152e-38
-0.14061308 0.62319851 -0.43238705 0 0 0 4.3484152e-38
-0.14951658 0.5662365 -0.66301304 0 0 0 4.3484152e-38
-0.15256548 0.54673195 -0.89414006 0 0 0 4.3484152e-38
0.23901057 -0.41969299 -1.050238 0 0 0 4.3484152e-38
0.26765823 -0.50267982 -0.25508833 0 0 0 4.3484152e-38
-0.090397358 0.63144493 -0.43291196 0 0 0 4.3484152e-38
-0.088461876 0.64353657 -0.66735506 0 0 0 4.3484152e-38
-0.091911793 0.62198353 -0.89986211 0 0 0 4.3484152e-38
0.26482797 -0.5164566 -1.042527 0 0 0 4.3484152e-38
0.27118182 -0.48552895 -1.2603678 0 0 0 4.3484152e-38
0.31367445 -0.49996948 -0.25534046 0 0 0 4.3484152e-38
-0.033630371 0.67895126 -0.43474913 0 0 0 4.3484152e-38
-0.029073715 0.70676422 -0.67099023 0 0 0 4.3484152e-38
0.29609132 -0.58398914 -1.0373863 0 0 0 4.3484152e-38
0.28913164 -0.61724472 -1.2473722 0 0 0 4.3484152e-38
0.34727955 -0.52544975 -0.25496224 0 0 0 4.3484152e-38
0.33027411 -0.60545444 -1.0361868 0 0 0 4.3484152e-38
0.32569647 -0.62699032 -1.2471658 0 0 0 4.3484152e-38
0.033126593 0.5343399 -0.66291207 0 0 0 4.3484152e-38
0.37303448 -0.61666298 -1.0360155 0 0 0 4.3484152e-38
0.36585426 -0.64984512 -1.2457218 0 0 0 4.3484152e-38
-0.49191201 0.58662033 -0.58420527 0 0 0 4.3484152e-38
0.068120003 0.45532322 -0.6592769 0 0 0 4.3484152e-38
-0.50693095 0.46904564 -1.0390875 0 0 0 4.3484152e-38
0.41960335 -0.61051273 -1.0373863 0 0 0 4.3484152e-38
0.42170882 -0.6009531 -1.2519102 0 0 0 4.3484152e-38
-0.45167422 0.57730579 -0.58402687 0 0 0 4.3484152e-38
-0.46122742 0.50368786 -0.81114632 0 0 0 4.3484152e-38
-0.47415245 0.4064312 -1.0344552 0 0 0 4.3484152e-38
0.46442652 -0.5837183 -1.0404707 0 0 0 4.3484152e-38
-0.46661842 0.4614048 -1.2683681 0 0 0 4.3484152e-38
-0.40171814 0.58872032 -0.58482957 0 0 0 4.3484152e-38
-0.40127504 0.59027386 -0.81699622 0 0 0 4.3484152e-38
-0.41700125 0.47517109 -1.0405252 0 0 0 4.3484152e-38
0.51873231 -0.54489517 -1.0447546 0 0 0 4.3484152e-38
-0.4187125 0.46097374 -1.2689523 0 0 0 4.3484152e-38
-0.36482108 0.55538177 -0.58358091 0 0 0 4.3484152e-38
-0.3665812 0.54114628 -0.81425798 0 0 0 4.3484152e-38
-0.37189424 0.50314999 -1.0432407 0 0 0 4.3484152e-38
-0.37861919 0.45342159 -1.2687576 0 0 0 4.3484152e-38
-0.31879938 0.53877163 -0.58313495 0 0 0 4.3484152e-38
-0.32287991 0.50874519 -0.81263989 0 0 0 4.3484152e-38
-0.32322788 0.50632191 -1.0440394 0 0 0 4.3484152e-38
-0.31995249 0.52753258 -1.2767408 0 0 0 4.3484152e-38
-0.27200174 0.5279274 -0.58295655 0 0 0 4.3484152e-38
-0.27502811 0.50582027 -0.81288886 0 0 0 4.3484152e-38
-0.27509522 0.50536442 -1.0445186 0 0 0 4.3484152e-38
-0.24853325 0.68409443 -1.2929021 0 0 0 4.3484152e-38
0.116014 -0.71877384 -0.39046061 0 0 0 4.3484152e-38
-0.22346818 0.52876949 -0.58331335 0 0 0 4.3484152e-38
-0.23075068 0.47903252 -0.8116442 0 0 0 4.3484152e-38
0.16380215 -0.47528553 -0.82915384 0 0 0 4.3484152e-38
-0.22902906 0.49042988 -1.0438796 0 0 0 4.3484152e-38
-0.21370411 0.59034634 -1.2843347 0 0 0 4.3484152e-38
0.15619445 -0.70838547 -0.39105111 0 0 0 4.3484152e-38
-0.1774044 0.55811882 -0.5849188 0 0 0 4.3484152e-38
0.21232033 -0.42709446 -0.61676574 0 0 0 4.3484152e-38
-0.18241286 0.52415371 -0.81488031 0 0 0 4.3484152e-38
0.19693208 -0.50421715 -0.8276552 0 0 0 4.3484152e-38
-0.18096936 0.53351021 -1.0478731 0 0 0 4.3484152e-38
-0.17292953 0.58412075 -1.2843347 0 0 0 4.3484152e-38
0.19860172 -0.71896744 -0.39098552 0 0 0 4.3484152e-38
-0.1246531 0.58425999 -0.58643502 0 0 0 4.3484152e-38
0.23386741 -0.54553795 -0.61111104 0 0 0 4.3484152e-38
-0.13041377 0.54633808 -0.81674731 0 0 0 4.3484152e-38
0.23491931 -0.54036522 -0.82574785 0 0 0 4.3484152e-38
-0.13080883 0.54383755 -1.0493107 0 0 0 4.3484152e-38
-0.12569499 0.57472992 -1.28414 0 0 0 4.3484152e-38
0.29212451 -0.45126915 -0.18408702 0 0 0 4.3484152e-38
0.24294567 -0.68928719 -0.39223215 0 0 0 4.3484152e-38
-0.080717802 0.59747982 -0.58732694 0 0 0 4.3484152e-38
0.2698586 -0.55903244 -0.61080813 0 0 0 4.3484152e-38
-0.078655958 0.60882473 -0.82110363 0 0 0 4.3484152e-38
0.2693131 -0.56167221 -0.82479417 0 0 0 4.3484152e-38
-0.081929207 0.58852482 -1.0534638 0 0 0 4.3484152e-38
-0.077681303 0.61342525 -1.2886184 0 0 0 4.3484152e-38
0.33175349 -0.47996044 -0.1837851 0 0 0 4.3484152e-38
0.30228662 -0.61998558 -0.39485666 0 0 0 4.3484152e-38
-0.017511845 0.68434334 -0.59160817 0 0 0 4.3484152e-38
0.30950904 -0.58566475 -0.60989934 0 0 0 4.3484152e-38
0.30936861 -0.58633137 -0.82370424 0 0 0 4.3484152e-38
0.35295391 -0.59396172 -0.3960377 0 0 0 4.3484152e-38
0.030067205 0.67437649 -0.59151894 0 0 0 4.3484152e-38
0.35234499 -0.59680271 -0.60979831 0 0 0 4.3484152e-38
0.35554719 -0.58185959 -0.82465792 0 0 0 4.3484152e-38
0.41210198 -0.50039387 -0.39944953 0 0 0 4.3484152e-38
0.0280931 0.41730976 -0.58019161 0 0 0 4.3484152e-38
0.3923595 -0.59113789 -0.61050516 0 0 0 4.3484152e-38
0.40111995 -0.55087185 -0.82738268 0 0 0 4.3484152e-38
0.075371504 0.4111166 -0.58028084 0 0 0 4.3484152e-38
0.44207025 -0.57137394 -0.61201984 0 0 0 4.3484152e-38
0.45700979 -0.50389671 -0.83133364 0 0 0 4.3484152e-38
0.1289897 0.4401474 -0.58197546 0 0 0 4.3484152e-38
0.52400184 -0.40956593 -0.62090576 0 0 0 4.3484152e-38
-0.36598098 0.66505241 -0.12101475 0 0 0 4.3484152e-38
-0.36024833 0.70642853 -0.3557311 0 0 0 4.3484152e-38
-0.34068942 0.54841805 -0.11998656 0 0 0 4.3484152e-38
-0.32387865 0.66701126 -0.35481676 0 0 0 4.3484152e-38
-0.29471362 0.53171253 -0.11989476 0 0 0 4.3484152e-38
-0.28351259 0.6086998 -0.35341835 0 0 0 4.3484152e-38
-0.25029886 0.55145741 -0.12013344 0 0 0 4.3484152e-38
-0.24326825 0.59873867 -0.35331079 0 0 0 4.3484152e-38
-0.18512321 0.66074657 -0.35519326 0 0 0 4.3484152e-38
0.18230081 -0.45381355 -0.75874603 0 0 0 4.3484152e-38
0.17778897 -0.47666359 -0.97311628 0 0 0 4.3484152e-38
0.2509644 -0.33760834 -0.54888535 0 0 0 4.3484152e-38
0.21579885 -0.51341248 -0.75550991 0 0 0 4.3484152e-38
0.21475649 -0.51859093 -0.97040075 0 0 0 4.3484152e-38
0.25129795 -0.33812618 -1.2027495 0 0 0 4.3484152e-38
0.24998689 -0.53516483 -0.54023379 0 0 0 4.3484152e-38
0.24590349 -0.55618286 -0.75326949 0 0 0 4.3484152e-38
0.23926067 -0.58865833 -0.96528918 0 0 0 4.3484152e-38
0.23809171 -0.59542274 -1.177826 0 0 0 4.3484152e-38
0.29220438 -0.55000114 -0.53996617 0 0 0 4.3484152e-38
0.29089499 -0.55731869 -0.75376737 0 0 0 4.3484152e-38
0.28209805 -0.59953785 -0.96512944 0 0 0 4.3484152e-38
0.27846837 -0.61798668 -1.176463 0 0 0 4.3484152e-38
0.32853985 -0.59234905 -0.53844994 0 0 0 4.3484152e-38
0.32845283 -0.59377289 -0.75202483 0 0 0 4.3484152e-38
0.32240534 -0.6222744 -0.96401131 0 0 0 4.3484152e-38
0.31953859 -0.63679409 -1.1754894 0 0 0 4.3484152e-38
0.36307096 -0.61199188 -0.53791481 0 0 0 4.3484152e-38
0.36844802 -0.58803654 -0.75289613 0 0 0 4.3484152e-38
0.36104727 -0.62238216 -0.96465021 0 0 0 4.3484152e-38
0.36148715 -0.62133884 -1.177826 0 0 0 4.3484152e-38
0.41093659 -0.59990501 -0.53889591 0 0 0 4.3484152e-38
0.41810751 -0.56819153 -0.75476313 0 0 0 4.3484152e-38
0.4148438 -0.58307266 -0.96864367 0 0 0 4.3484152e-38
0.42081547 -0.55683136 -1.1852251 0 0 0 4.3484152e-38
0.4580543 -0.59191227 -0.5396986 0 0 0 4.3484152e-38
0.47055531 -0.53686237 -0.75737691 0 0 0 4.3484152e-38
0.46418619 -0.56540394 -0.97087997 0 0 0 4.3484152e-38
0.51187944 -0.52619267 -0.5430879 0 0 0 4.3484152e-38
0.12290001 -0.64463806 -0.32200816 0 0 0 4.3484152e-38
0.17141342 -0.62568951 -0.32276115 0 0 0 4.3484152e-38
0.23457813 -0.50379658 -0.32631093 0 0 0 4.3484152e-38
0.28338933 -0.48725414 -0.32701015 0 0 0 4.3484152e-38
0.32453585 -0.50808334 -0.32668743 0 0 0 4.3484152e-38
0.37480402 -0.45538425 -0.32835475 0 0 0 4.3484152e-38
