# .PCD v0.7 - Point Cloud Data file format
VERSION 0.7
FIELDS x y z
SIZE 4 4 4
TYPE F F F
COUNT 1 1 1
WIDTH 857
HEIGHT 1
VIEWPOINT 0 0 0 1 0 0 0
POINTS 857
DATA ascii
1.8649988 4.8541832 -0.47745842
1.8834989 4.8491716 -0.47764128
1.931005 4.9179935 -0.39161244
1.8954362 4.827405 -0.47617838
1.9214631 4.8488588 -0.38658607
1.9083914 4.8158717 -0.47562978
1.9503458 4.8695564 -0.38880357
1.9297321 4.818089 -0.47654408
1.9648869 4.8615561 -0.38865575
1.9426202 4.8064632 -0.47599551
1.9887255 4.8690934 -0.38983843
1.9654951 4.8122172 -0.47727555
2.0129275 4.8769627 -0.20434517
2.0019927 4.8507099 -0.38895142
1.9800802 4.7976174 -0.47654408
2.0090322 4.8244915 -0.20241007
2.0256555 4.8646502 -0.39057758
1.9951427 4.7913728 -0.47654408
2.0344517 4.8355169 -0.20318411
2.0513256 4.8756232 -0.29860431
2.0473392 4.8663855 -0.39131677
2.0157797 4.7913713 -0.47727555
2.0388708 4.7967606 -0.20186825
2.0480917 4.8184538 -0.29556078
2.054239 4.8331504 -0.38924709
2.0309904 4.7784519 -0.47672695
2.0507801 4.7829843 -0.20155863
2.0632193 4.811996 -0.29556078
2.0788441 4.848671 -0.3910211
2.051486 4.7848611 -0.47800702
2.0667081 4.7717681 -0.20140383
2.0752869 4.791575 -0.29477173
2.0966012 4.8410192 -0.3910211
2.068218 4.7754827 -0.47782415
1.8444875 4.8277078 -0.62732661
2.0849848 4.7659922 -0.20148124
2.0816305 4.7583246 -0.29319358
2.1079354 4.8186831 -0.38983843
1.9034046 4.9276667 -0.45426351
2.0920928 4.7824674 -0.47928706
1.8593831 4.8137012 -0.53508902
1.8714697 4.8449917 -0.63045967
1.8665245 4.8321891 -0.72037196
2.1088214 4.779531 -0.20233268
2.0997932 4.7590694 -0.29364449
2.1399705 4.8503585 -0.39294294
1.8884749 4.8436885 -0.44706658
2.1159503 4.7959151 -0.48129857
1.8846134 4.8337841 -0.53797692
1.8729786 4.8039422 -0.6258806
1.8673044 4.7893887 -0.71486247
2.1214445 4.7608171 -0.20186825
2.1204729 4.758637 -0.29409537
2.1585455 4.8443041 -0.39309075
1.910599 4.8478575 -0.4480947
2.1335139 4.7881274 -0.48129857
1.9023174 4.8268442 -0.53797692
1.9000371 4.8210578 -0.62901366
1.8899302 4.7954135 -0.7167908
2.1511812 4.7803464 -0.2030293
2.1697385 4.8218093 -0.39190811
1.9276171 4.8389711 -0.44792333
2.1600389 4.8002539 -0.48331007
1.9207321 4.8216877 -0.53818321
1.9066731 4.7863946 -0.62539864
1.9045613 4.7810931 -0.71568888
2.1934414 4.833621 -0.20558362
2.2046561 4.8585601 -0.39545611
1.9353772 4.8144031 -0.44620979
2.1784005 4.8006988 -0.48404154
1.9299344 4.8008633 -0.53653294
1.9298465 4.8006449 -0.62804961
1.9520822 4.8559575 -0.72780985
2.2365727 4.8812723 -0.39796931
1.96051 4.825738 -0.44792333
2.200959 4.803546 -0.48513871
1.9624927 4.8306184 -0.54065853
1.971342 4.8524008 -0.63576168
1.9646479 4.8359232 -0.72588152
2.0113347 4.90658 -0.1114488
2.2694635 4.9122448 -0.40107381
1.9681028 4.8011179 -0.44620979
2.2243919 4.8146877 -0.48696736
1.9678497 4.8005004 -0.53797692
1.9782928 4.8259759 -0.63311064
1.9783279 4.8260612 -0.72533059
2.0063486 4.8437548 -0.11018807
2.2916682 4.9129319 -0.40181297
1.9971248 4.8214865 -0.44878012
2.2546525 4.8335762 -0.48971033
1.9907602 4.8061209 -0.5394209
1.98761 4.7985153 -0.63045967
1.9929707 4.8114576 -0.72422868
2.0001576 4.7791877 -0.10888531
2.3173075 4.9207392 -0.4031435
2.0147831 4.8141341 -0.44878012
2.2884753 4.8595147 -0.49318475
2.0083621 4.7987919 -0.5394209
2.0044174 4.7893667 -0.63021863
1.9937671 4.7639189 -0.7181682
2.0231118 4.7847166 -0.10917948
2.0324142 4.8067174 -0.44878012
2.3259387 4.8924646 -0.49739063
2.0166402 4.7694116 -0.53694552
2.0088134 4.7509007 -0.62612164
2.0150719 4.7657018 -0.71954554
2.0420558 4.7875333 -0.1093896
2.0498502 4.8058071 -0.44929418
2.0433211 4.7905002 -0.54003972
2.0393078 4.7810912 -0.63094163
2.0346968 4.7702804 -0.72119844
2.0493033 4.756144 -0.10884329
2.0698161 4.8037519 -0.44980824
2.050632 4.7592282 -0.53735811
2.0403192 4.7352939 -0.6258806
2.0490317 4.7555141 -0.72009653
2.077893 4.7742696 -0.10943163
2.0913849 4.8052688 -0.45066503
2.0767944 4.7717452 -0.53962713
2.0743001 4.7660136 -0.63094163
2.074353 4.7661357 -0.72285128
2.0808258 4.7402539 -0.10880126
2.1104755 4.8077979 -0.45152181
2.0933743 4.7688403 -0.54003972
2.0876665 4.7558379 -0.63045967
2.0837424 4.7468982 -0.72092295
1.8544586 4.7845473 -0.80419266
2.1216881 4.7856064 -0.11001997
2.1280828 4.8000302 -0.45152181
2.1180954 4.777503 -0.54189622
2.1155446 4.7717495 -0.63359267
2.1043382 4.7464728 -0.72202486
1.8561242 4.7372446 -0.79738009
1.8473432 4.7145915 -0.88292021
1.868812 4.7693815 -0.98346108
1.8332789 4.6784577 -1.0531279
2.1465058 4.8008223 -0.11052427
2.1496587 4.8078737 -0.45289266
2.1379657 4.7817216 -0.54313391
2.1370082 4.7795801 -0.6355207
2.1329849 4.7705812 -0.72670794
1.8709974 4.73139 -0.79738009
1.8606963 4.7051005 -0.88223308
1.8520044 4.6831217 -0.96686894
1.8458079 4.6672144 -1.051897
1.9726732 4.9360323 -0.36294213
2.1680861 4.8017788 -0.45306402
2.1595705 4.7829189 -0.54416531
2.1512437 4.7644773 -0.63455665
2.1512706 4.7645369 -0.72698343
1.8949263 4.7410135 -0.80016708
1.8793914 4.7019081 -0.88292021
1.8691565 4.676302 -0.96686894
1.8643548 4.664053 -1.0527176
1.9787949 4.8991671 -0.3607623
2.1947641 4.8137441 -0.45494893
2.185339 4.7930722 -0.54622811
2.1785758 4.7782388 -0.63744867
2.1744716 4.769237 -0.72891176
1.9078499 4.7230444 -0.79830909
1.9150617 4.7406592 -0.89150894
1.880398 4.654851 -0.96385217
1.8858362 4.6680779 -1.0551791
1.9956825 4.8966217 -0.36103478
2.2231934 4.835793 -0.4576906
2.206203 4.7988358 -0.54767203
2.207675 4.8020377 -0.64154571
2.1993735 4.7839804 -0.73221749
1.9622059 4.8140025 -0.81472117
1.9485383 4.7802324 -0.90009761
1.9313408 4.7380428 -0.98232979
1.9004921 4.6621308 -1.0551791
1.9882917 4.8277841 -0.17138012
2.0151358 4.8929644 -0.36130723
2.2400637 4.8258047 -0.45751926
2.2237766 4.7907171 -0.54767203
2.2202449 4.7831087 -0.6400997
2.2269013 4.7974486 -0.73552322
1.9655393 4.7720656 -0.80883759
1.9660457 4.7730584 -0.90009761
1.9606626 4.7599897 -0.98836327
1.9354602 4.6985717 -1.0650253
2.044472 4.9129791 -0.080343701
2.0036693 4.8149276 -0.17118329
2.0190747 4.8519483 -0.26566973
2.0299895 4.8781767 -0.3607623
2.2814126 4.868083 -0.4623172
2.2607369 4.8239651 -0.5524165
2.3152738 4.9403358 -0.6622718
1.9928862 4.7885442 -0.81286323
1.9759558 4.7476306 -0.89666218
1.9773409 4.7509584 -0.98798621
1.9534205 4.6932535 -1.0654355
2.0260367 4.81881 -0.078924634
2.0197539 4.8038664 -0.17105205
2.0329735 4.8353086 -0.26516482
2.0463085 4.8670249 -0.36048982
2.2992399 4.8596888 -0.4623172
2.3243449 4.9127507 -0.5635556
2.3393092 4.9443798 -0.66395885
2.0073602 4.7739224 -0.81162459
1.9994534 4.7548862 -0.89941055
2.0015931 4.759974 -0.99138004
1.9706091 4.6860623 -1.0654355
2.0317953 4.790329 -0.078562312
2.0270302 4.7790947 -0.17039594
2.033335 4.7939591 -0.26324627
2.0584722 4.8532243 -0.35994485
2.335942 4.8974047 -0.4666011
2.4343905 4.5770741 -0.47599551
2.34148 4.9090157 -0.56396812
2.3471382 4.9208779 -0.66178983
2.0177183 4.7566786 -0.80976659
2.0059175 4.7286291 -0.89563149
2.0127017 4.7446218 -0.98949456
1.9868499 4.6834526 -1.066256
2.0454011 4.7736592 -0.078411348
2.0468948 4.7771454 -0.17059277
2.0493188 4.7828026 -0.26304433
2.0801754 4.8548174 -0.36062604
2.4349229 4.537879 -0.38170755
2.372402 4.9272866 -0.56706232
2.3711874 4.9247642 -0.66347682
2.0398085 4.760148 -0.81162459
2.0278919 4.7321115 -0.8976928
2.0323992 4.7426291 -0.99062586
2.0078576 4.6851349 -1.0683073
2.0603878 4.76721 -0.078411348
2.0492039 4.7413335 -0.16954297
2.05007 4.7433372 -0.26122674
2.0985835 4.8555851 -0.36117101
2.4804692 4.5881066 -0.38658607
1.8620719 4.8862619 -0.51151413
2.378845 4.9012151 -0.66130781
2.3527071 4.8473625 -0.74929708
2.0500491 4.7428341 -0.80976659
2.04353 4.7275257 -0.89803636
2.0488472 4.7398262 -0.99138004
2.0334406 4.703959 -1.0740509
2.0810471 4.7669568 -0.078532122
2.0865619 4.7795897 -0.17118329
2.0778306 4.7595897 -0.26253945
2.1155677 4.8460321 -0.36103478
1.859215 4.8255396 -0.50586742
2.3967929 4.8924637 -0.66130781
2.0689998 4.7389102 -0.81038588
2.0600553 4.7181983 -0.8976928
2.0701354 4.7412853 -0.99326551
2.0545843 4.7054439 -1.0761021
2.1081865 4.7812552 -0.078894436
2.0951948 4.751791 -0.17046155
2.0960674 4.7537694 -0.26264042
2.1389503 4.8510256 -0.36198846
1.8898684 4.8522663 -0.41723239
1.8783339 4.8224025 -0.50625688
2.4023886 4.8587294 -0.65793377
2.0919356 4.7439504 -0.81255352
2.0813093 4.7196298 -0.89941055
2.0930469 4.7462459 -0.99590516
2.0899837 4.7390757 -1.085538
2.13376 4.7983627 -0.079286948
2.1174226 4.7616234 -0.17105205
2.1231654 4.774538 -0.26415506
2.1679626 4.8752766 -0.36430451
1.899268 4.8314619 -0.4159545
1.8920181 4.8127728 -0.50586742
2.4123273 4.8404961 -0.65648776
2.1076317 4.7391605 -0.81286323
2.1001296 4.7220693 -0.90112829
2.1071491 4.7378526 -0.9955281
2.099293 4.7199669 -1.0826663
1.8954494 4.8187838 -1.1758803
1.8810999 4.7818136 -1.25691
2.1446874 4.7757125 -0.17183942
2.1422873 4.7703686 -0.26435703
2.1948085 4.8873205 -0.36580315
1.9176996 4.8263211 -0.41611424
1.9140553 4.8169045 -0.50703573
2.4068582 4.7855053 -0.65022177
2.1298447 4.7422185 -0.81472117
2.1222663 4.7251239 -0.9031896
2.1261096 4.7336807 -0.99628228
2.1342235 4.7515244 -1.091692
1.8893198 4.7519965 -1.1612648
1.8878464 4.747808 -1.249782
2.192723 4.8351774 -0.17426708
2.2225959 4.9010501 -0.36743802
1.9309183 4.8081598 -0.41515583
1.9265046 4.796927 -0.50567269
2.4135988 4.7554064 -0.64732975
2.1504757 4.7415781 -0.81595981
2.1436396 4.7262855 -0.90490729
2.1548033 4.7508988 -1.0015615
2.1508157 4.7418871 -1.0912817
1.906724 4.7450399 -1.1612648
1.8994399 4.7264357 -1.2459803
2.2603867 4.9430385 -0.37111649
1.955748 4.8260899 -0.41723239
1.9520317 4.816678 -0.50839871
2.3914566 4.6753283 -0.63744867
2.1678267 4.7401896 -0.81688881
2.1658523 4.7356539 -0.90799928
2.1762531 4.7583957 -1.0045784
2.1779146 4.7618089 -1.0974355
1.9142927 4.720952 -1.1568359
1.9091685 4.7078428 -1.2426538
2.2776523 4.932909 -0.37098026
1.9651126 4.7985954 -0.41547528
1.9560939 4.7763348 -0.50489384
2.3921852 4.6347747 -0.63311064
2.1951258 4.7537384 -0.82060474
2.1972373 4.7580924 -0.91383958
2.2101481 4.7860508 -1.0121202
2.1945324 4.752017 -1.0970253
1.9338015 4.7193184 -1.1581646
1.9278841 4.7044091 -1.2436043
2.0182996 4.8776627 -0.23564431
2.0302169 4.9062209 -0.33108014
1.9910722 4.8116241 -0.41723239
1.9850037 4.7967219 -0.50781459
2.4219956 4.6506286 -0.63648468
2.3973043 4.6032171 -0.72174937
2.236747 4.7975945 -0.82958496
2.2388065 4.8017931 -0.9238025
2.227675 4.7779179 -1.0121202
2.217725 4.7563605 -1.099897
1.9406401 4.6869712 -1.1519641
1.9443704 4.6955166 -1.2431291
2.04285 4.8934236 -0.23671462
2.0448511 4.8979764 -0.33095565
2.0077145 4.8090243 -0.41755188
1.9931611 4.7739305 -0.50606215
2.4339938 4.638042 -0.54313391
2.436594 4.6429968 -0.63648468
2.2760971 4.8419971 -1.0272039
2.2576396 4.8025146 -1.1122048
1.9628727 4.6988478 -1.1563929
1.9591122 4.6893849 -1.2431291
2.0374773 4.8306746 -0.23403886
2.0596864 4.8830919 -0.33045781
2.0346246 4.8236761 -0.4194687
2.0098715 4.7647591 -0.50586742
2.434221 4.5974441 -0.5394209
1.9846319 4.7024031 -1.1590503
1.9808192 4.6929121 -1.2459803
2.0434206 4.7956028 -0.23270099
2.0744398 4.868165 -0.32995993
2.0515091 4.8143525 -0.41930896
2.4476252 4.5820699 -0.44672385
2.032784 4.7701788 -0.5072304
1.9964991 4.682539 -1.1559501
2.0063884 4.7052779 -1.2512075
2.0568984 4.7854881 -0.23252261
2.0842054 4.8487864 -0.32908866
2.0681982 4.8115468 -0.41962844
2.04776 4.7637691 -0.5072304
2.0335464 4.7282019 -1.168794
2.0979233 4.8774152 -1.2987278
2.0744243 4.7779174 -0.23252261
2.1059382 4.8502698 -0.32971099
2.0889955 4.8112488 -0.4202674
2.0723414 4.7726641 -0.50898284
2.1060393 4.8477235 -1.2002394
2.10727 4.8500934 -1.2935005
2.0855029 4.7556434 -0.23180908
2.1116755 4.8150978 -0.32784399
2.1162238 4.825469 -0.42218423
2.0938175 4.7741508 -0.50995642
2.1253603 4.843544 -1.2011251
2.1226902 4.8370004 -1.2920749
2.1028574 4.75455 -0.23207664
2.1275997 4.8102655 -0.32796848
2.1313732 4.8187971 -0.42218423
2.1200783 4.7930346 -0.51268244
2.1295161 4.8118739 -1.1949247
2.1378758 4.830308 -1.2920749
2.1341221 4.7778239 -0.23359291
2.1737101 4.8662248 -0.3323248
2.1636562 4.8437176 -0.4250595
2.1465619 4.8052235 -0.51482427
2.1511173 4.8129396 -1.1971391
2.1523943 4.8153453 -1.2901741
2.1491547 4.7645059 -0.23332533
2.2054849 4.8891573 -0.33444071
2.184674 4.8430238 -0.42569843
2.164978 4.7991381 -0.515019
2.1703479 4.8085785 -1.1980249
2.1764231 4.8215895 -1.2939757
2.2056563 4.8488393 -0.42681661
2.1891105 4.812243 -0.51716083
2.1846359 4.7999611 -1.197582
2.1867309 4.8041191 -1.2911245
1.9862673 4.8749814 -0.14161475
2.2317345 4.858839 -0.42841396
2.2059028 4.8023782 -0.5169661
2.2054715 4.7990103 -1.1993536
2.2100031 4.8084288 -1.2944509
1.9934655 4.8417864 -0.14086176
2.2537217 4.8596697 -0.42921266
2.2301893 4.8087072 -0.51852387
2.2312553 4.8085861 -1.2037826
2.2325187 4.8108697 -1.2973021
2.0025308 4.8207293 -0.14043149
2.2833331 4.8832664 -0.43192819
2.5428681 3.9766312 -0.43338814
2.2638345 4.8413453 -0.52280754
2.2463508 4.8015528 -1.2037826
2.2525613 4.8143902 -1.3001534
2.0201864 4.8133574 -0.14043149
2.3080242 4.8892875 -0.43320608
2.5487936 3.9538927 -0.43192524
2.3223515 4.919416 -0.53215384
2.2797601 4.8267946 -1.2121974
2.0657911 4.8719001 -0.048582163
2.0323513 4.793036 -0.140055
2.3490851 4.9293871 -0.43751895
2.5469899 3.9194744 -0.42918226
2.3506424 4.9324336 -0.53449041
2.0755811 4.8525147 -0.04845364
2.0371778 4.7627316 -0.13935581
2.4259281 4.5292711 -0.35081682
2.5433683 3.8871188 -0.34430552
2.5723763 3.9314525 -0.43137664
2.0877998 4.8320236 -0.048325114
2.0625501 4.7735858 -0.13989365
2.4614835 4.555459 -0.35354158
2.561991 3.8844309 -0.34489685
2.5999269 3.9419487 -0.43357101
2.1053667 4.8309407 -0.048380196
2.082329 4.778079 -0.14021635
2.5620444 3.8580861 -0.34327069
2.6233158 3.9503524 -0.43539965
2.0974112 4.7649255 -0.140055
2.5236573 3.7700794 -0.2561076
2.5051622 3.7425911 -0.33380932
2.6510711 3.9605718 -0.43759403
2.127856 4.7864361 -0.14091556
2.491668 3.6929376 -0.25148591
2.49209 3.6937025 -0.33026129
2.6455193 3.9211106 -0.43430248
2.1429284 4.7731333 -0.14075419
2.4860973 3.6557105 -0.24956962
2.4955173 3.6696999 -0.3289308
2.6542733 3.9031534 -0.43338814
2.5278978 3.6921782 -0.17330638
2.5032101 3.6561203 -0.25013325
2.5104139 3.6667793 -0.32937428
2.6451452 3.8635714 -0.42991373
2.520982 3.6532805 -0.1719131
2.5075207 3.6337731 -0.24923146
2.5204382 3.6526284 -0.3289308
2.5993383 3.7669709 -0.42022192
2.5313065 3.6437013 -0.17183571
2.5166457 3.6225977 -0.24900602
2.5319006 3.6446924 -0.3289308
2.5418468 3.6590099 -0.40906721
2.5343282 3.6196649 -0.17113908
2.5287609 3.6117136 -0.24889329
2.5452421 3.6353879 -0.3289308
2.5164039 3.594198 -0.40284982
2.5571008 4.0153909 -0.49362683
2.5406644 3.6005545 -0.17067465
2.5362253 3.5942633 -0.24832967
2.5596993 3.6276646 -0.32907861
2.5387461 3.5979691 -0.40431273
2.5739501 4.0093398 -0.49403939
2.5623796 3.6072185 -0.17137128
2.5475044 3.5862777 -0.24832967
2.5768585 3.6277354 -0.3298178
2.5518956 3.9476514 -0.40422767
2.567337 3.614331 -0.40705571
2.4307821 4.6004586 -0.50898284
2.5703335 3.9761736 -0.49094519
2.5674403 3.5864275 -0.17082946
2.561794 3.5785403 -0.2484424
2.5866544 3.6134009 -0.32937428
2.4382443 4.5741091 -0.41531554
2.5619957 3.9315939 -0.40354225
2.5678148 3.5870831 -0.4050442
2.5859756 3.9683928 -0.49115148
2.5899222 3.5899594 -0.17144869
2.5772295 3.5723655 -0.24866784
2.4543052 4.5638628 -0.32311428
2.613884 3.6233065 -0.3311483
2.4521604 4.5598745 -0.41483635
2.5720127 3.9155154 -0.40285683
2.5692928 3.5614955 -0.40321556
2.6136096 3.9788406 -0.49362683
2.6136394 3.5949907 -0.17214532
2.5891314 3.5612805 -0.24855512
2.4510272 4.5179911 -0.32050049
2.6306648 3.6185417 -0.33159178
2.5973475 3.9226766 -0.4045704
2.582329 3.5520546 -0.40321556
2.6095045 3.9410369 -0.49012008
2.4967818 3.7707961 -0.6289137
2.6201994 3.5803111 -0.17183571
2.6073823 3.5627973 -0.24923146
2.4948871 4.5645671 -0.32435894
2.652621 3.6247454 -0.33292231
2.6107633 3.9161553 -0.40474176
2.5864184 3.5342813 -0.40211836
2.6240797 3.9361298 -0.49053264
2.4525757 3.6788733 -0.61486435
2.6239786 3.558038 -0.24956962
2.7073209 3.6711822 -0.3380965
2.6135395 3.5440125 -0.40431273
2.6229551 3.9033694 -0.48764473
2.512604 3.7391496 -0.54683214
2.44947 3.6451964 -0.6107322
2.6672795 3.5930669 -0.25261316
2.6950645 3.6306286 -0.33513981
2.523468 3.7299511 -0.38726348
2.6341572 3.5485778 -0.40577567
2.6162546 3.8670993 -0.48413798
2.4687116 3.6490154 -0.53478211
2.4575796 3.632561 -0.60990578
2.528141 3.7075064 -0.38589263
2.6650398 3.5628216 -0.40851861
2.5676484 3.7654438 -0.47258633
2.4697654 3.6218987 -0.53213108
2.4697611 3.6218925 -0.60963029
2.5326836 3.6850779 -0.38452181
2.7104475 3.5959716 -0.41345593
2.5160794 3.6609187 -0.4606221
2.461657 3.5817337 -0.52755207
2.4740434 3.5997558 -0.60742646
2.5521848 3.6885736 -0.3857213
2.5332277 3.6611757 -0.4616535
2.4638598 3.560921 -0.52562404
2.4695601 3.5691595 -0.60356981
2.5485899 3.6546774 -0.38315096
2.5238714 3.6192312 -0.45752791
2.4814372 3.5583806 -0.52658802
2.4599631 3.5275867 -0.59806025
2.5631137 3.6469421 -0.3833223
2.5085227 3.5692673 -0.45237094
2.4819047 3.5313938 -0.52393705
2.474015 3.5201676 -0.59833574
2.5745583 3.6388719 -0.3833223
2.5220215 3.5646169 -0.4527835
2.4929867 3.5235791 -0.52393705
2.4804852 3.5059094 -0.59723383
2.4060302 3.7380116 -0.931692
2.5682116 3.6018298 -0.38040927
2.5142808 3.5261936 -0.44907045
2.4862893 3.4869366 -0.51984
2.4841177 3.483891 -0.59503001
2.4440541 3.7668231 -0.78294754
2.4289486 3.7435424 -0.85675752
2.3834882 3.6733372 -0.91774327
2.5304334 3.8692656 -0.315667
2.5930235 3.6085744 -0.38212281
2.5353141 3.5282633 -0.45051441
2.5025287 3.4826374 -0.52056301
2.4922464 3.4683282 -0.5939281
2.4395096 3.7298086 -0.77710718
2.4157753 3.6935208 -0.84733015
2.3830061 3.6432805 -0.91240996
2.5327003 3.8462985 -0.31444085
2.6055152 3.602025 -0.38229418
2.5207355 3.4848204 -0.44597626
2.5053117 3.4634976 -0.51887602
2.500808 3.4572713 -0.59337717
2.4624753 3.7393668 -0.70169449
2.4447131 3.7122533 -0.77504587
2.419805 3.6744306 -0.8446905
2.3869035 3.6243327 -0.90953815
2.5048492 3.7738156 -0.30926374
2.6140049 3.5860102 -0.38160875
2.5358348 3.4787731 -0.44638884
2.5191588 3.4558961 -0.519117
2.5157967 3.4512837 -0.5939281
2.4357326 3.6694064 -0.69023699
2.4288816 3.658947 -0.76577008
2.4071856 3.6262634 -0.83564025
2.3850148 3.5927281 -0.90379459
2.4924302 3.7253981 -0.22659174
2.4931445 3.7264659 -0.30613023
2.6365681 3.5892527 -0.3829796
2.5544567 3.4774716 -0.44742021
2.5341592 3.4498401 -0.51959902
2.5366385 3.4532151 -0.59585643
2.4579554 3.6735919 -0.69271427
2.4389892 3.6451075 -0.76473945
2.419368 3.6157837 -0.83526313
2.3959894 3.5807087 -0.90297407
2.4728758 3.6711631 -0.22376439
2.4881182 3.6937914 -0.30408666
2.6395378 3.5697365 -0.38178012
2.560638 3.4630313 -0.4465951
2.5414433 3.4370725 -0.51887602
2.535697 3.429301 -0.59310168
2.4396782 3.6216059 -0.68435341
2.4361176 3.6161845 -0.76027328
2.4230337 3.5967624 -0.83262348
2.4028521 3.5666702 -0.90133303
2.5020225 3.6852107 -0.22517806
2.4971566 3.6780438 -0.30354169
2.6835589 3.6015825 -0.38623536
2.5911422 3.477551 -0.4496893
2.563514 3.4404712 -0.52080399
2.5600848 3.435869 -0.59585643
2.4518256 3.6110051 -0.68404377
2.4449282 3.6007111 -0.75889909
2.4328902 3.5829825 -0.83149219
2.4159083 3.5578394 -0.90133303
2.4918239 3.6413984 -0.22305755
2.4925909 3.6425192 -0.30136186
2.7230628 3.6267793 -0.39000517
2.609843 3.4759848 -0.4507207
2.5641859 3.4151752 -0.51839399
2.603585 3.4676499 -0.60301882
2.4594648 3.5938413 -0.68249542
2.4569962 3.5901 -0.75855559
2.4471154 3.5756624 -0.8318693
2.3946595 3.4988842 -0.88861507
2.535718 3.6806784 -0.14670978
2.5055177 3.6368418 -0.22325951
2.5187383 3.6560316 -0.30313295
2.6387415 3.4915748 -0.45381489
2.5964496 3.4356141 -0.52273202
2.6311872 3.4815788 -0.60687554
2.4685009 3.5828428 -0.68187612
2.4649091 3.5774961 -0.75752491
2.450536 3.5566354 -0.82922965
2.3923123 3.4720013 -0.88369203
2.5343704 3.6500146 -0.14585683
2.5051599 3.6079457 -0.22204778
2.5161889 3.6238294 -0.3012256
2.6683943 3.5040371 -0.4567028
2.6198502 3.4402907 -0.52490103
2.6631324 3.4971275 -0.61128312
2.4782352 3.5689025 -0.68094712
2.4678905 3.5538726 -0.75443298
2.4310663 3.5008442 -0.81829393
2.3960893 3.4503474 -0.88040996
2.5328324 3.6194105 -0.14500386
2.5160763 3.5954664 -0.22184584
2.5386062 3.6276615 -0.30231553
2.5519228 4.0101948 -0.46497744
2.7308717 3.5589418 -0.46516025
2.6674926 3.4763443 -0.53189009
2.6928151 3.5093453 -0.61513984
2.4845016 3.5500822 -0.67908913
2.4775102 3.5399609 -0.75340235
2.4179783 3.4548993 -0.80962074
2.4154539 3.4511642 -0.88287151
2.5407369 3.6065333 -0.14480703
2.5262091 3.5859113 -0.22174485
2.5534377 3.6245618 -0.30272424
2.5602131 3.9954538 -0.46419859
2.4660542 3.5002627 -0.67103791
2.4613838 3.4935045 -0.74515718
2.4175076 3.4312298 -0.80584979
2.4353039 3.4563603 -0.88615352
2.3150868 3.6106915 -1.1241148
2.5516241 3.5939369 -0.14467579
2.5404916 3.5782568 -0.22184584
2.5632398 3.6102977 -0.30231553
2.5441809 3.9387317 -0.37570083
2.5640392 3.9693234 -0.46225145
2.4605641 3.4654236 -0.66608334
2.4547799 3.4571493 -0.73931682
2.4289303 3.4207447 -0.80547273
2.4728885 3.4825237 -0.89517915
2.3230541 3.594058 -1.1215795
2.569432 3.5910633 -0.14493825
2.559401 3.5770438 -0.22235072
2.5799384 3.605747 -0.30272424
2.5651269 3.9394042 -0.37665924
2.5807428 3.9632351 -0.46264088
2.4697995 3.4515612 -0.66515434
2.4605548 3.4385152 -0.73725551
2.4437377 3.4150138 -0.80622691
2.4936101 3.4845798 -0.89805096
2.5993931 3.6089251 -0.14598805
2.5717933 3.5706062 -0.22245169
2.5982504 3.6073387 -0.30354169
2.5687456 3.9179885 -0.37538135
2.5964551 3.9601018 -0.46322501
2.4794757 3.4421818 -0.66484469
2.4690421 3.4275708 -0.73656845
2.4751184 3.4360063 -0.81301457
2.5182748 3.4957879 -0.90297407
2.611429 3.5977559 -0.14592244
2.5848629 3.5611563 -0.22245169
2.5302145 3.8285422 -0.28614783
2.6126266 3.599406 -0.30367792
2.5841877 3.9102104 -0.37554109
2.6164396 3.9588616 -0.46419859
2.4862719 3.425076 -0.6632964
2.4954777 3.4376316 -0.74069101
2.5326955 3.4889009 -0.82772124
2.517271 3.4675257 -0.89805096
2.4525335 3.7093115 -1.0097955
2.3273561 3.519721 -1.0321393
2.6191244 3.5806777 -0.22426927
2.5431232 3.8175817 -0.28602335
2.64465 3.6155741 -0.30585775
2.6353464 3.9558716 -0.46497744
2.4999752 3.4175351 -0.66360605
2.5034072 3.4221015 -0.73931682
2.5535836 3.4906914 -0.83036089
2.5542343 3.4914529 -0.90666634
2.4628675 3.6954288 -1.0084668
2.3391635 3.5095508 -1.0316641
2.6185174 3.5563471 -0.22325951
2.6278031 3.9178174 -0.4614726
2.5130424 3.4128466 -0.66422534
2.5305016 3.4364312 -0.7441265
2.5726898 3.4937229 -0.8330006
2.5570652 3.4723778 -0.90379459
2.4396896 3.6358483 -0.99429423
2.3425996 3.4908926 -1.0283377
2.551914 3.8023779 -1.2001712
2.508749 3.7111247 -0.19996765
2.4751418 3.6612728 -0.27556819
2.5021732 3.7012579 -0.35797006
2.6399152 3.9048617 -0.46108317
2.5267117 3.4051995 -0.66453505
2.5900433 3.490423 -0.75786847
2.5843072 3.4826927 -0.83262348
2.574441 3.4692702 -0.90543556
2.3634021 3.4944079 -0.95797706
2.3532019 3.4790647 -1.0273873
2.4151571 3.5702586 -1.1296922
2.5730608 3.8033972 -1.2834921
2.5077085 3.6804397 -0.19880816
2.4907925 3.6554754 -0.27581713
2.5101092 3.6838245 -0.35717139
2.609375 3.8293631 -0.45329461
2.5675726 3.4338944 -0.67196691
2.6122582 3.49353 -0.76061684
2.6111691 3.4920735 -0.83714861
2.5918281 3.4660816 -0.9070766
2.3750951 3.4841106 -0.95753413
2.3714092 3.4784424 -1.0297632
2.4282265 3.5613828 -1.1296922
2.4687028 3.6204762 -1.2248089
2.5192587 3.6725433 -0.19880816
2.4966183 3.6394022 -0.27519479
2.5149033 3.6660569 -0.35621294
2.5200498 3.6734219 -0.43577033
2.6223104 3.4842236 -0.68342441
2.6244054 3.4868803 -0.7609604
2.6445684 3.5136697 -0.84431338
2.614476 3.4735618 -0.91117918
2.3860292 3.4766316 -0.95753413
2.3790271 3.4661701 -1.0283377
2.4328334 3.5441663 -1.12665
2.4473605 3.5650628 -1.2086576
2.5202036 3.6452069 -0.19782706
2.5156167 3.6384366 -0.27581713
2.5328581 3.6633739 -0.35685191
2.5334966 3.6641607 -0.43577033
2.6446147 3.4871838 -0.6859017
2.7550366 3.6326544 -0.7949717
2.6598027 3.5070834 -0.84506756
2.6591275 3.5060661 -0.92225611
2.3976462 3.4662592 -0.95709127
2.4381349 3.5245306 -1.0482962
2.4447064 3.5336349 -1.1261429
2.454931 3.5481489 -1.2059658
2.5221243 3.6195526 -0.19693515
2.5289352 3.6291919 -0.27581713
2.53601 3.6393449 -0.35541427
2.5366673 3.6401525 -0.4340179
2.6945693 3.5261362 -0.69550127
2.6941059 3.5254021 -0.85185528
2.4605265 3.5294449 -0.9770214
2.4554811 3.5219452 -1.050197
2.4554284 3.521477 -1.1251289
2.4635122 3.5328074 -1.2038122
2.5243037 3.5985258 -0.1962216
2.5288606 3.604888 -0.27457246
2.560025 3.6493127 -0.35717139
2.5583789 3.646831 -0.43577033
2.4704821 3.5201011 -0.97657853
2.4665334 3.5142138 -1.050197
2.4720368 3.521663 -1.127664
2.4779186 3.5297799 -1.2054273
2.5397828 3.5925124 -0.19639999
2.5420561 3.5955949 -0.27457246
2.5814395 3.6513004 -0.35828954
2.5349562 3.5854199 -0.42953947
2.4901247 3.5205765 -0.97923589
2.4816408 3.508322 -1.0511473
2.4849279 3.5125787 -1.127664
2.4897268 3.5191019 -1.2048889
2.5390205 3.5636528 -0.1953297
2.5505843 3.579751 -0.27407461
2.5901773 3.6353197 -0.35765058
2.5319095 3.5534096 -0.42681348
2.4996154 3.5066617 -0.97790718
2.4899719 3.4928751 -1.0492465
2.4921699 3.4955711 -1.1251289
2.5003717 3.5068161 -1.2038122
2.5665061 3.5783887 -0.19657838
2.5676348 3.5798306 -0.27469695
2.5969374 3.6206846 -0.35701165
2.5395799 3.5405855 -0.42622933
2.5140307 3.5035453 -0.97923589
2.4941368 3.4755652 -1.0463953
2.5042672 3.4892962 -1.1256359
2.5214849 3.5130272 -1.2086576
2.5749228 3.5624807 -0.1962216
2.5819077 3.5720134 -0.2748214
2.6031833 3.6014478 -0.3560532
2.5420451 3.5167351 -0.42447689
2.5211406 3.4864054 -0.9770214
2.5148277 3.4774199 -1.0497217
2.5204408 3.484797 -1.127157
2.5298283 3.497519 -1.2065041
2.6056077 3.5772443 -0.19755949
2.6032093 3.5738206 -0.27569267
2.6292775 3.6096082 -0.35781032
2.5560894 3.5090032 -0.42467162
2.5350506 3.4787176 -0.97746432
2.5241237 3.463469 -1.0482962
2.5297778 3.4708455 -1.1256359
2.5437648 3.4897799 -1.2070425
2.6203773 3.573875 -0.19782706
2.614424 3.5656247 -0.27569267
2.6464984 3.6093688 -0.35860902
2.5729859 3.5089817 -0.42564517
2.548274 3.4738815 -0.9783501
2.5533781 3.4805849 -1.0558994
2.5589802 3.4878385 -1.1337485
2.5604131 3.489536 -1.2097343
2.6382079 3.5706747 -0.19818382
2.6428959 3.576889 -0.27731073
2.6597097 3.5996447 -0.35860902
2.5905612 3.5059311 -0.42642406
2.5714235 3.4786336 -0.98233616
2.5684278 3.4743273 -1.0568498
2.5751972 3.4831028 -1.1352696
2.5789115 3.4878721 -1.2124263
2.7185955 3.6552582 -0.36499849
2.6110661 3.5105526 -0.42798176
2.5788465 3.4658439 -0.98100746
2.5804896 3.4677999 -1.057325
2.6207781 3.5215564 -1.150481
2.6059568 3.5013857 -1.2199636
2.6382406 3.5200727 -0.43031833
2.6032319 3.4719732 -0.98543638
2.6246502 3.5002847 -1.0701555
2.6383104 3.5181181 -1.1525091
2.6703184 3.5357938 -0.43343374
2.6206427 3.4686329 -0.98720795
2.638633 3.4921913 -1.0706307
2.5526774 3.6772025 -0.12042364
2.6534221 3.4853857 -0.99473715
2.5642171 3.6691649 -0.12042364
2.5707407 3.6499348 -0.12010093
2.5864155 3.6437485 -0.12020849
2.6083109 3.6502452 -0.12069256
