# .PCD v0.7 - Point Cloud Data file format
VERSION 0.7
FIELDS x y z
SIZE 4 4 4
TYPE F F F
COUNT 1 1 1
WIDTH 1423
HEIGHT 1
VIEWPOINT 0 0 0 1 0 0 0
POINTS 1423
DATA ascii
1.9219878 2.6998067 -0.30428603
1.9202603 2.6765618 -0.30245739
1.9473164 2.6963491 -0.30538321
1.9454663 2.6730909 -0.30355456
1.959962 2.6723664 -0.30428603
1.9577018 2.6517754 -0.30264026
2.0369465 2.7380559 -0.25294408
1.9733517 2.6525719 -0.30355456
2.0577357 2.7449348 -0.25427458
1.9926175 2.6580698 -0.30501747
2.069309 2.74228 -0.13305657
2.0531342 2.7209435 -0.25264841
2.0093555 2.6629255 -0.30629754
2.075717 2.7299047 -0.13282436
2.0667148 2.7181633 -0.2530919
2.0347729 2.6761529 -0.30867475
2.0857091 2.7222784 -0.13282436
2.0790894 2.7137365 -0.25338757
2.0360892 2.6576104 -0.30739471
1.8937278 2.7095532 -0.40126732
1.8905808 2.7050505 -0.45894444
2.0600791 2.6714003 -0.13065706
2.0778568 2.6944535 -0.19208069
2.0851686 2.7040327 -0.2530919
2.0541577 2.6638181 -0.30885762
1.9300137 2.7430778 -0.34778723
1.9079431 2.7117095 -0.40247232
1.9036292 2.7055781 -0.46004635
2.0637252 2.6559412 -0.13027003
2.0791423 2.6757822 -0.19129163
2.0913942 2.6916471 -0.25264841
2.0785711 2.6751435 -0.31105199
1.9147395 2.7002845 -0.34324908
1.8960493 2.6739264 -0.39789331
1.8951995 2.6727281 -0.45563874
2.0572848 2.630554 -0.1293412
2.0690861 2.6456435 -0.18960078
2.1035259 2.6897769 -0.2530919
2.0734692 2.6513431 -0.30904049
1.9197459 2.6893983 -0.34263024
1.9136683 2.6808841 -0.39982131
1.9104922 2.6764348 -0.45729157
2.0594909 2.6135776 -0.12887678
2.0762973 2.6349053 -0.18937533
2.1096671 2.6773491 -0.25264841
1.9490937 2.7094562 -0.2870205
2.0979645 2.6624975 -0.31123486
1.9133263 2.6597357 -0.33974233
1.9130466 2.6593468 -0.3976523
1.9098778 2.6549418 -0.45481229
2.0702991 2.6075768 -0.12895419
2.0772493 2.6163306 -0.18858626
2.1194658 2.6695988 -0.25264841
1.9555025 2.6974542 -0.28650644
2.1015172 2.6469913 -0.31032053
1.9218942 2.6510944 -0.33953604
1.9262767 2.6571395 -0.3983753
1.9207585 2.6495278 -0.45508778
2.0835876 2.6046531 -0.12918639
2.0843301 2.605581 -0.18836083
2.1217608 2.6524675 -0.25176141
1.9712534 2.698314 -0.28736323
2.1224015 2.6532683 -0.31196633
1.9445066 2.6617022 -0.34180513
1.9348314 2.6484585 -0.39813429
1.9327937 2.6456692 -0.45563874
2.0942667 2.6012077 -0.1293412
2.091253 2.5974648 -0.1882481
2.1525974 2.6737535 -0.25442243
1.9643739 2.6712387 -0.2851356
2.1307263 2.6465876 -0.31196633
1.9410735 2.6395538 -0.33974233
1.9419661 2.6407673 -0.39789331
1.9481373 2.6491594 -0.45729157
2.0911965 2.5779936 -0.12856716
2.0982435 2.5866809 -0.18802264
2.1598697 2.6627479 -0.25412676
1.9883881 2.6832325 -0.28719187
2.1416669 2.6403069 -0.3121492
1.9637636 2.6500032 -0.34201139
1.9539961 2.6368225 -0.3983753
1.9625515 2.6483674 -0.45839348
2.10569 2.5765016 -0.12887678
2.1077099 2.5789731 -0.18802264
2.1683526 2.6532693 -0.25397891
1.9994015 2.6775234 -0.28736323
2.1626725 2.6463189 -0.31379497
1.9687021 2.6364119 -0.34118629
1.9672111 2.6344154 -0.39909831
1.9734303 2.6427438 -0.45866898
2.0616233 2.7428327 -0.072113931
2.1175826 2.5745041 -0.12910898
2.119607 2.5769653 -0.18836083
2.2286236 2.7096014 -0.2600401
2.0101979 2.6744146 -0.28770593
2.165915 2.633359 -0.3130635
1.9817559 2.636575 -0.34201139
1.9695131 2.6202867 -0.39789331
1.9793426 2.6333642 -0.45811802
2.0318232 2.682657 -0.070727125
2.1270044 2.5667255 -0.12910898
2.1290379 2.5691793 -0.18836083
2.0272052 2.6765597 -0.28873405
2.2035091 2.6591406 -0.31708652
1.9974116 2.6372228 -0.34304279
1.9922897 2.6304603 -0.40054432
2.0033333 2.6450412 -0.46142375
2.0530021 2.6900773 -0.011103625
2.0343633 2.6656547 -0.070474975
2.1543291 2.58039 -0.13019264
2.162755 2.5904825 -0.19050257
2.0515084 2.6881201 -0.29079032
2.2387681 2.6816237 -0.3207438
2.0010297 2.6219771 -0.34201139
2.0019176 2.6231406 -0.40054432
2.0094092 2.6329567 -0.46059731
2.0431678 2.6598234 -0.011005188
2.0220203 2.6322932 -0.069760561
2.1585679 2.5690191 -0.12996043
2.0587294 2.6800816 -0.29061899
2.2548685 2.6837261 -0.32184097
2.0165281 2.6251435 -0.34324908
2.004101 2.6089659 -0.39933932
2.0188775 2.628202 -0.4608728
1.8593848 2.6538992 -0.50784594
2.0565753 2.6570616 -0.011024876
2.0463412 2.6438394 -0.070264854
2.1886292 2.5854959 -0.13119888
2.0721977 2.6772454 -0.29113305
2.2801309 2.6936853 -0.32403535
2.0346596 2.628747 -0.34469303
2.0136499 2.601603 -0.39933932
2.0212219 2.6113856 -0.45921993
1.8850549 2.6696632 -0.51218122
2.0687599 2.6526601 -0.011038001
2.0646253 2.6473587 -0.070559025
2.0832217 2.6712036 -0.29130438
2.3106654 2.7095568 -0.32696119
2.0455041 2.6228406 -0.34489933
2.0243928 2.5957706 -0.3995803
2.0283432 2.6008358 -0.45866898
1.8810799 2.6434176 -0.50846529
1.897491 2.6663811 -0.57063442
1.8892959 2.6548655 -0.62559891
1.8613731 2.615531 -0.67282027
2.046211 2.6068175 -0.01087394
2.0642896 2.6298492 -0.070264854
2.0989854 2.6740506 -0.29233253
2.3321371 2.7173977 -0.32878983
2.0697019 2.6367445 -0.34758094
2.0423448 2.601892 -0.40150833
2.0487351 2.610033 -0.46142375
1.8859231 2.6326764 -0.50753629
1.8989738 2.6507967 -0.56857312
1.8827573 2.6281598 -0.62069666
1.8764207 2.6192181 -0.67528182
2.0520298 2.5945942 -0.010854253
2.0825973 2.633244 -0.070559025
2.1050639 2.6616507 -0.29181847
2.0756502 2.62446 -0.34696212
2.0444779 2.5850456 -0.40006232
2.0496857 2.5916305 -0.4594954
1.904812 2.6385627 -0.51001358
1.9052168 2.6390264 -0.56754249
1.8958263 2.626019 -0.62182796
1.8768415 2.5996265 -0.67199975
2.0528011 2.576107 -0.010808316
2.0797734 2.6099553 -0.070138782
2.1284652 2.6710596 -0.29370338
2.0951734 2.6292808 -0.34861234
2.0737357 2.6023786 -0.40391833
2.0702815 2.5980434 -0.46197468
1.9028461 2.6155856 -0.506917
1.9125583 2.6288393 -0.56685537
1.9019719 2.6142881 -0.62069666
1.8829021 2.5879815 -0.67076898
2.069643 2.5805666 -0.010854253
2.0867116 2.6018488 -0.070096761
2.1368458 2.6643596 -0.29370338
2.1108909 2.6319971 -0.34985003
2.0806589 2.5943019 -0.40367731
2.0821514 2.5961628 -0.46280113
1.9250627 2.6287243 -0.51063293
1.9289565 2.6339447 -0.56926024
1.9113361 2.6098845 -0.62107378
1.8956496 2.5883703 -0.67241001
2.0715454 2.5636301 -0.010814878
2.1037743 2.6035147 -0.070348904
2.1390827 2.6472104 -0.29267523
2.1142719 2.6165061 -0.34881863
2.1063757 2.606734 -0.40681034
2.0916529 2.5885139 -0.46280113
1.9229521 2.6057525 -0.50753629
1.9280679 2.6125894 -0.56616831
1.9162238 2.5965402 -0.61956537
1.9074484 2.5845549 -0.67323053
2.0809276 2.5560203 -0.010814878
2.1095152 2.5911345 -0.070222832
2.1588352 2.6517148 -0.29404607
2.1451993 2.6349654 -0.35232538
2.1184227 2.6020758 -0.40729234
2.1098807 2.5915837 -0.46472946
1.9478176 2.6192989 -0.51156193
1.9517395 2.6244771 -0.57029086
1.9679226 2.6462383 -0.6331408
1.9274217 2.5916829 -0.67692286
2.1054256 2.5695813 -0.01090019
2.1265161 2.5953212 -0.070517004
2.1621037 2.6387541 -0.29336065
2.1547275 2.6297519 -0.35253164
2.1404285 2.6123009 -0.40994337
2.128056 2.5972006 -0.46693328
1.9820856 2.6479669 -0.5183745
1.9847698 2.6514561 -0.57750541
1.9821113 2.6479049 -0.63502622
1.9754384 2.6388943 -0.69087154
2.1173759 2.5649319 -0.010913315
2.047075 2.7141941 -0.051328182
2.1245575 2.5736315 -0.070138782
2.057039 2.7274053 -0.11213194
2.062978 2.73528 -0.23392329
2.1996686 2.6646192 -0.2971305
2.1643515 2.6218369 -0.35253164
2.1588364 2.6151562 -0.41163036
2.1463885 2.6000772 -0.46886161
1.9905878 2.6391068 -0.5180648
1.9921016 2.6410179 -0.57681829
1.9799753 2.6249416 -0.63125533
1.9827396 2.6285107 -0.69005102
2.1280415 2.5586917 -0.010919877
2.0388591 2.6827905 -0.050875288
2.1352546 2.5673647 -0.070180804
2.0646029 2.7166648 -0.11200072
2.0681603 2.7213459 -0.23337832
2.2030494 2.6488788 -0.29627371
2.1942992 2.6383581 -0.35583213
2.1823721 2.6240172 -0.4142814
2.1711042 2.6104691 -0.47216734
2.0050297 2.6380856 -0.51930344
2.0148828 2.6509535 -0.58059734
1.9931484 2.6223581 -0.63238657
1.9935447 2.6227844 -0.69046128
2.163027 2.5842004 -0.011057688
2.0326974 2.6573119 -0.050512969
2.1612778 2.5821104 -0.070769146
2.0658402 2.700639 -0.11160704
2.0803366 2.7195897 -0.23378704
2.2036862 2.6327767 -0.29524556
2.2140689 2.6451809 -0.35768864
2.1880562 2.6141033 -0.41379938
2.1780231 2.6021163 -0.47189185
2.0049038 2.6207883 -0.51713586
2.0148208 2.6336565 -0.57819247
1.9966033 2.6098435 -0.63087821
1.9910699 2.6025167 -0.68676901
2.0350983 2.6403403 -0.050331812
2.1913517 2.5986292 -0.071441539
2.0513189 2.6613851 -0.11029479
2.0583417 2.6704967 -0.17044869
2.0915084 2.713527 -0.23392329
2.2814035 2.7054181 -0.30432743
1.9405377 2.7599795 -0.33004051
2.2301612 2.6446521 -0.35872003
2.2206614 2.6333866 -0.4181374
2.2028699 2.6122885 -0.47519758
2.0157022 2.6149871 -0.5174455
2.0184457 2.6184518 -0.57647473
2.009753 2.6071749 -0.63200951
2.019717 2.6200063 -0.69333309
2.0496683 2.6391814 -0.050452586
2.0463464 2.6349039 -0.10950743
2.06199 2.6550467 -0.16994379
2.0867531 2.6869321 -0.23228841
2.309366 2.7182987 -0.3067264
1.9207191 2.7106218 -0.32497796
2.2527194 2.6516211 -0.36078283
2.2200143 2.6131248 -0.4162094
2.2188425 2.6117454 -0.47657496
2.0313332 2.6153841 -0.51899379
2.0256121 2.6079242 -0.57578766
2.0156808 2.5951378 -0.63087821
2.0197001 2.6002188 -0.69005102
2.0641074 2.6406066 -0.05060355
2.0558453 2.6300371 -0.10957305
2.0592496 2.6343923 -0.169035
2.1013284 2.6882234 -0.23296961
2.3373179 2.7337482 -0.30929673
1.9269135 2.7013335 -0.32458854
2.2843084 2.6717474 -0.36449587
2.2540174 2.6363187 -0.42102942
2.2347603 2.6137958 -0.47822782
2.034672 2.6027629 -0.51775515
2.0350087 2.6030998 -0.57613122
2.0201945 2.5841503 -0.62974691
2.0242419 2.5892344 -0.6888203
1.9477701 2.72896 -0.8787058
1.9449182 2.7247632 -0.93570018
2.0712972 2.6298816 -0.050543163
2.0592868 2.6146324 -0.10924499
2.0750709 2.6346729 -0.1695399
2.1037593 2.6710982 -0.23215216
2.3512232 2.7296925 -0.30981079
1.9275066 2.6813231 -0.32303083
2.3070683 2.6784298 -0.36655867
2.2792137 2.6460915 -0.42392144
2.267596 2.6326039 -0.48318642
2.0429754 2.5937359 -0.5174455
2.0469742 2.5987194 -0.57681829
2.041806 2.5921581 -0.63351786
2.0518873 2.6048634 -0.69497412
1.9289827 2.6822898 -0.75026035
1.9714501 2.7411397 -0.82590151
1.9532404 2.7155206 -0.87667763
1.9380199 2.6941617 -0.92762452
2.077193 2.6175728 -0.050452586
2.0589156 2.5945408 -0.10872009
2.0710554 2.6098385 -0.16842915
2.1197369 2.6711848 -0.23283337
1.9361534 2.6726284 -0.3228361
2.3455536 2.7030113 -0.37109682
2.3656704 2.7261937 -0.43814054
2.3720059 2.733495 -0.5032962
2.0536964 2.5877783 -0.51775515
2.0564852 2.5911992 -0.57681829
2.045188 2.5769646 -0.63163239
2.0443845 2.5758598 -0.6892305
1.8850089 2.6009784 -0.72944438
1.9552615 2.6977162 -0.81497186
1.9495548 2.6895463 -0.87059313
1.9354458 2.6698856 -0.92170238
2.094142 2.6219721 -0.050663937
2.0720465 2.5943074 -0.10898253
2.0979424 2.6267304 -0.16994379
2.1156659 2.648921 -0.23147097
2.0097888 2.7561085 -0.27330959
1.9468858 2.669749 -0.32322553
2.0605829 2.5797698 -0.5174455
2.0572374 2.5754893 -0.57475698
2.0557253 2.573596 -0.63238657
2.0659053 2.5862482 -0.69374335
1.8874235 2.5871654 -0.72722989
1.8767047 2.5722842 -0.77885652
1.9477315 2.6693428 -0.86602974
1.9404178 2.6591244 -0.92008722
2.0987232 2.6080472 -0.050543163
2.0853007 2.5913675 -0.10917938
2.0812583 2.586344 -0.16782328
2.0953376 2.6038404 -0.22820123
1.9785585 2.6924963 -0.26771879
1.9484069 2.6513677 -0.32186252
2.0824122 2.5875933 -0.52054214
2.0888987 2.5955603 -0.5809409
2.0626812 2.562984 -0.63163239
2.0790524 2.5832336 -0.69497412
1.9003589 2.5849445 -0.7285586
1.8872707 2.5669537 -0.77933168
1.8772765 2.5530798 -0.83053672
1.87712 2.5526805 -0.88563108
2.1158245 2.6096578 -0.050724324
2.0947845 2.5837071 -0.10917938
2.0970135 2.5864563 -0.16832817
2.0985839 2.5883932 -0.22752002
2.0097692 2.7140653 -0.27059406
1.9545578 2.6394098 -0.32127839
2.0869048 2.5738044 -0.51930344
2.0897114 2.5771739 -0.57853603
2.0794835 2.5645602 -0.63389498
2.0786433 2.5634327 -0.69169205
1.9005326 2.5654247 -0.72501546
1.8885709 2.5490923 -0.77600527
1.8751036 2.5306377 -0.82546628
1.8738488 2.52876 -0.87970895
2.117691 2.5952508 -0.050573356
2.0953085 2.5678208 -0.1087857
2.1114428 2.5875936 -0.16883306
2.1294124 2.6096153 -0.22997233
2.0063715 2.6917539 -0.26899669
1.9711673 2.6444275 -0.32264137
2.1199651 2.5978525 -0.52549672
2.1102548 2.5858612 -0.58197153
2.0974648 2.5701885 -0.63691169
2.0978253 2.5705388 -0.69538438
1.9260713 2.5828938 -0.73165882
1.9035381 2.5524907 -0.77885652
1.8980812 2.5448952 -0.83205783
1.8898454 2.5336683 -0.88347757
2.124649 2.5843821 -0.050512969
2.1123226 2.5693884 -0.10917938
2.1133018 2.5705795 -0.1682272
2.0198157 2.6891642 -0.26947591
1.9904099 2.6499176 -0.32419911
2.1181788 2.5763285 -0.52270973
2.1097078 2.5659339 -0.57922316
2.1081183 2.5640008 -0.63728881
2.1022599 2.5567846 -0.69374335
1.9284953 2.5664618 -0.72900146
1.9128808 2.5454967 -0.77885652
1.9015841 2.5301883 -0.82952261
1.891018 2.5159464 -0.87970895
2.140485 2.5842781 -0.050663937
2.1332014 2.5754843 -0.10976989
2.1278057 2.56897 -0.16863111
2.0452988 2.7024086 -0.27155247
2.0037129 2.647366 -0.32478324
2.1339095 2.5761561 -0.52425808
2.1165845 2.5551498 -0.57853603
2.1124899 2.5502067 -0.63578045
2.120358 2.5596142 -0.69661516
2.0026424 2.644896 -0.75336057
1.9867009 2.623652 -0.80499262
1.917853 2.5324554 -0.83256489
1.9060414 2.5166762 -0.88240081
2.0835519 2.7321832 0.0090553863
2.1422551 2.567203 -0.05048278
2.1515915 2.5783916 -0.11022918
2.0669475 2.7104094 -0.15216094
2.148725 2.5749564 -0.1695399
2.1183026 2.7776518 -0.21781588
2.0539811 2.6933088 -0.27139273
2.0121953 2.6384215 -0.32458854
2.1585293 2.5865219 -0.52797401
2.1436093 2.5685525 -0.58334571
2.1457341 2.5710983 -0.64294523
2.138505 2.5623455 -0.69948691
1.9957604 2.6158302 -0.74716008
1.9974822 2.6178973 -0.80546784
1.9740678 2.5869296 -0.85284662
1.9070728 2.4989548 -0.87863219
2.0726409 2.7002399 0.0089710522
2.1747448 2.5895565 -0.051056445
2.1609666 2.5731502 -0.11029479
2.0851848 2.7165821 -0.15287447
2.1355264 2.7820671 -0.21868713
2.0745711 2.702657 -0.27299011
2.0277467 2.6415606 -0.32575682
2.1641028 2.5767019 -0.52735466
2.1516681 2.5618055 -0.58334571
2.1588538 2.5703607 -0.64445359
2.1503212 2.5601113 -0.70071769
2.0039685 2.6095474 -0.74716008
1.9974135 2.6008236 -0.80214143
1.9821851 2.5807152 -0.85284662
1.951288 2.5403049 -0.89532185
2.0678411 2.6736407 0.0089078015
2.185513 2.5830948 -0.051086638
2.0719028 2.6788924 -0.15117984
2.0846474 2.6952736 -0.21246383
2.0795841 2.6887274 -0.27235115
2.0459394 2.6451321 -0.32711983
2.188848 2.586853 -0.53107065
2.1737702 2.5689428 -0.5867812
2.1733348 2.5684283 -0.64596194
2.1761279 2.5716381 -0.70605105
2.012326 2.6006424 -0.74671721
2.0140665 2.6027038 -0.80499262
2.0070238 2.5933225 -0.85943818
1.9971329 2.5803564 -0.91201156
2.066402 2.6545057 0.008865634
2.0766265 2.6676402 -0.15091226
2.0943308 2.6902864 -0.2125883
2.0855715 2.6790345 -0.27203169
2.0579076 2.6434035 -0.32770395
2.2072122 2.5919986 -0.53354794
2.1946042 2.5771017 -0.5902167
2.1903071 2.5720556 -0.64860165
2.1930802 2.5752211 -0.7089228
2.0216846 2.5958464 -0.74716008
2.0162642 2.5887003 -0.8026166
2.0199165 2.5931094 -0.86146635
2.0099645 2.5801475 -0.91416508
2.0600712 2.6264565 0.0087971129
2.0678935 2.6364293 -0.14957438
2.1041772 2.6825922 -0.2125883
2.1039894 2.682353 -0.27314985
2.073725 2.6436739 -0.32867754
2.2308493 2.6003876 -0.53695422
2.2386734 2.6094155 -0.59949249
2.2559915 2.6296015 -0.66519374
2.2101517 2.5760794 -0.71138436
2.0323894 2.5899534 -0.747603
2.0269382 2.5828211 -0.80309182
2.0401576 2.5993857 -0.86602974
2.0324898 2.5894301 -0.92008722
2.0486026 2.5922129 0.0087075075
2.0713484 2.6209946 -0.14912842
2.1028559 2.6607673 -0.2114681
2.1026814 2.6605465 -0.27171221
2.0821662 2.6344941 -0.32848281
2.2507014 2.6041529 -0.53943151
2.2585294 2.6131182 -0.60224092
2.0454972 2.5870769 -0.74893165
2.0400059 2.5799465 -0.80451739
2.0448709 2.5858207 -0.86400157
2.0371876 2.5759201 -0.9179337
2.0406482 2.5627828 0.0086337151
2.0821855 2.614948 -0.14921762
2.0889688 2.623373 -0.20910324
2.1161442 2.6575005 -0.27219144
2.0980079 2.6346304 -0.32945639
2.3912776 2.7463939 -0.57070738
2.361248 2.7118092 -0.62697643
2.0525351 2.5765114 -0.74804586
2.044606 2.5663743 -0.8026166
2.0627737 2.5889001 -0.86755085
2.0550177 2.5789809 -0.92170238
2.077456 2.5922544 0.0087549454
2.0941389 2.6130712 -0.14948519
2.0859649 2.6027787 -0.20798305
2.1307163 2.6586177 -0.27299011
2.1137435 2.6373456 -0.33062467
2.4011958 2.7403541 -0.57101703
2.3658602 2.6999321 -0.62594575
2.0703795 2.5822237 -0.751589
2.062381 2.5720634 -0.80641824
2.074528 2.5869348 -0.86907202
2.06793 2.5785229 -0.9238559
2.074379 2.5690622 0.0087022362
2.0986812 2.5991602 -0.14912842
2.0942366 2.5935628 -0.20785858
2.1604857 2.6756077 -0.2755459
2.1233957 2.6295805 -0.33062467
2.4020708 2.7211657 -0.56884938
2.377044 2.6927197 -0.62628931
2.0663486 2.557929 -0.74671721
2.0766776 2.5705321 -0.80831903
2.0827796 2.5778091 -0.86856496
2.067682 2.5589404 -0.91954887
2.0950527 2.5780537 0.0087549454
2.096756 2.5801497 -0.14841489
2.1074097 2.5931671 -0.20835644
2.1827111 2.6858256 -0.27730301
2.1580095 2.6553354 -0.33471367
2.4066708 2.7091744 -0.56792045
2.3737147 2.671982 -0.62319738
2.0842171 2.5635314 -0.75026035
2.0920966 2.5730393 -0.81117022
2.0969708 2.5787582 -0.87110019
2.0902946 2.570365 -0.92600942
2.0943518 2.5579779 0.0087127779
2.0998697 2.5647175 -0.14796893
2.1093125 2.576159 -0.20760964
2.2026443 2.6901476 -0.2785809
2.1538558 2.6304672 -0.3325718
2.4205372 2.7047524 -0.56884938
2.3900619 2.6706047 -0.62491512
2.0960705 2.5588927 -0.75114614
2.1088998 2.5743711 -0.81402147
2.1137648 2.5800345 -0.87414247
2.0874939 2.547787 -0.92062563
2.1177125 2.5672555 0.0087707583
2.0529583 2.7225876 -0.031304833
2.048691 2.7169285 -0.091541328
2.1219699 2.5724168 -0.14886084
2.1403344 2.5945873 -0.20972557
2.2175641 2.6882079 -0.27921984
2.1964161 2.662477 -0.33763438
2.4472437 2.48599 -0.48511475
2.4132347 2.6767845 -0.56482381
2.3866408 2.6471934 -0.62147963
2.1091597 2.5557058 -0.75247478
2.1146114 2.5621295 -0.81259584
2.1269016 2.5767457 -0.87566358
2.1103063 2.5564587 -0.92654777
2.145004 2.5810106 0.0088445507
2.0411446 2.6863816 -0.030974342
2.0380733 2.6823394 -0.090626985
2.1454315 2.5815248 -0.14984196
2.1536572 2.5913308 -0.21009897
2.2261276 2.6785288 -0.2790601
2.2061598 2.6544087 -0.33763438
2.4177158 2.662071 -0.56358516
2.4016259 2.6442621 -0.62285382
2.1359694 2.5689535 -0.75867528
2.1376507 2.5707934 -0.81782305
2.1437535 2.5778582 -0.8787058
2.1282835 2.5590734 -0.93031639
2.0471442 2.6767786 -0.030937621
2.0477045 2.6775115 -0.090680771
2.1484034 2.5686417 -0.14948519
2.2741826 2.7189274 -0.28401193
2.2298131 2.6657865 -0.33997095
2.4194021 2.6471698 -0.56203687
2.408592 2.6352499 -0.62251025
2.1390231 2.5562475 -0.75690371
2.1519506 2.5715144 -0.82019907
2.1468749 2.565176 -0.87667763
2.1462028 2.5641913 -0.93462342
2.0313058 2.6359909 -0.030552048
2.0306566 2.6351485 -0.089497514
2.1719658 2.5775571 -0.15046629
2.3008332 2.7303925 -0.28608853
2.2498302 2.6697726 -0.34152865
2.4277499 2.636831 -0.56172717
2.4048889 2.6119096 -0.61907476
2.1634629 2.5662844 -0.76221842
2.160109 2.5621245 -0.8197239
2.1687334 2.5720809 -0.88174808
2.1642785 2.5666156 -0.93839204
2.0446332 2.6332669 -0.03060713
2.0574675 2.649796 -0.0902505
2.3327591 2.7477777 -0.28880405
2.273771 2.6782 -0.34367052
2.4427726 2.6337099 -0.56296581
2.4251647 2.6146343 -0.62182319
2.1917925 2.5806358 -0.76886183
2.1958961 2.5852845 -0.82970315
2.2006915 2.5906553 -0.89087486
2.186142 2.5733454 -0.94377583
2.1046312 2.6930301 0.028992154
2.0565901 2.6315579 -0.030662213
2.0522397 2.6259911 -0.089658864
2.3132062 2.7073636 -0.34834367
2.4442935 2.6188004 -0.56141752
2.193553 2.5663245 -0.76664734
2.2052696 2.57985 -0.83017832
2.2276766 2.6057868 -0.89848053
2.2117393 2.5869613 -0.95131314
2.0674715 2.6255898 0.028347507
2.0674586 2.6255736 -0.030680573
2.0556662 2.6105978 -0.089389943
2.3425918 2.7214961 -0.35126436
2.449815 2.6055055 -0.56048852
2.2334876 2.5937374 -0.77727681
2.2451358 2.6070802 -0.84158319
2.2548881 2.6181273 -0.90557909
2.2375476 2.5978103 -0.95831203
2.0845389 2.6273949 0.028449293
2.075825 2.6164117 -0.030662213
2.0714338 2.610877 -0.089658864
2.4593482 2.596509 -0.56048852
2.2407422 2.5823176 -0.95562017
2.0790555 2.6036422 0.028262686
2.0865302 2.613003 -0.030698933
2.077131 2.6012321 -0.0895513
2.4497709 2.5701766 -0.55646294
2.0910919 2.5991211 0.028296614
2.0823033 2.5881975 -0.030496966
2.0866508 2.5936015 -0.0895513
2.4550693 2.5569046 -0.55553395
2.0968258 2.5867786 0.028245721
2.1068878 2.5991914 -0.030717293
2.1074734 2.5999141 -0.090035357
2.4479399 2.5308464 -0.55181801
2.1201129 2.5987742 0.028449293
2.1074576 2.5832617 -0.03060713
2.1067841 2.5824363 -0.089658864
2.4613912 2.5288072 -0.55305666
2.1283538 2.5894413 0.02843233
2.1270707 2.5878804 -0.030754015
2.123852 2.5839643 -0.089981571
2.4706433 2.5197687 -0.55305666
2.1569636 2.6047282 0.028686795
2.1441948 2.5893087 -0.030864179
2.1180069 2.5576844 -0.089336157
2.446538 2.476958 -0.54562473
2.160001 2.5917778 -0.030974342
2.150351 2.5801988 -0.090358064
2.4779871 2.4930835 -0.55088902
2.1726494 2.5876114 -0.090895914
2.4773216 2.4742105 -0.54872137
2.4751484 2.453985 -0.54624408
2.4828455 2.446197 -0.54624408
2.4875569 2.4329357 -0.54531509
2.5021279 2.4293075 -0.54655373
2.4997938 2.4118314 -0.54438609
2.5353372 1.5801352 -0.27429628
2.5207827 1.5582654 -0.27210194
2.5281751 1.5500569 -0.27228478
2.5109169 1.5286431 -0.26990756
2.5096831 1.5153122 -0.2691761
2.5235674 1.6785597 -0.42147958
2.5342913 1.5175232 -0.21894224
2.5135114 1.5050803 -0.26899323
2.501595 1.6507512 -0.41679648
2.5201876 1.4983419 -0.21731608
2.4942605 1.4829274 -0.26643312
2.5051117 1.6417983 -0.41652101
2.5394075 1.4971988 -0.21849874
2.5322762 1.4929943 -0.26990756
2.516803 1.6363053 -0.3643941
2.5077908 1.6304461 -0.41597006
2.5242159 1.4758011 -0.21672474
2.5044301 1.6152327 -0.36174309
2.5137498 1.6212436 -0.41597006
2.5271149 1.4668626 -0.2165769
2.5111639 1.6084276 -0.36198407
2.5305076 1.6208174 -0.41789839
2.548032 1.4665449 -0.2179074
2.528712 1.6066275 -0.31065691
2.4986086 1.587501 -0.35933307
2.5280712 1.6062202 -0.41652101
2.5499253 1.4552188 -0.21761174
2.5244858 1.5909846 -0.30941924
2.5228868 1.5899769 -0.36198407
2.5389688 1.6001121 -0.41734743
2.5691292 1.453721 -0.21879441
2.518492 1.5743399 -0.30797529
2.5371151 1.5859814 -0.3631891
2.5716925 1.607596 -0.42175508
2.5383644 1.4257457 -0.16435073
2.5475988 1.4309909 -0.2165769
2.5065238 1.5559282 -0.30591249
2.5150955 1.5612491 -0.35933307
2.5918775 1.6089116 -0.42423436
2.5631745 1.4273479 -0.11362829
2.5139155 1.3999172 -0.16243443
2.551084 1.4206735 -0.21642907
2.554327 1.4224794 -0.26844463
2.5274558 1.5561177 -0.307769
2.5749025 1.58533 -0.3670451
2.6061914 1.604594 -0.42561173
2.5693951 1.4202552 -0.11370569
2.5445151 1.4065027 -0.16412528
2.5502977 1.4097573 -0.21598557
2.5314476 1.5476292 -0.25514838
2.5430958 1.4057761 -0.26679885
2.5357265 1.550245 -0.30818155
2.6273005 1.6062299 -0.37379315
2.6095293 1.5953653 -0.42533627
2.524009 1.6995189 -0.47687975
2.5553045 1.400264 -0.11285426
2.5216351 1.3818136 -0.16232172
2.529211 1.3860227 -0.21376805
2.5183601 1.5269761 -0.25326347
2.5307655 1.3868746 -0.26497021
2.5481956 1.5450665 -0.30900669
2.639961 1.6007072 -0.37475717
2.6136651 1.5847631 -0.42506081
2.495718 1.6672076 -0.47037685
2.5516388 1.3861191 -0.11246724
2.544229 1.3820938 -0.16344894
2.5518003 1.3862643 -0.21524639
2.5324783 1.5228699 -0.25412023
2.5340817 1.3766388 -0.26478735
2.6407056 1.5879509 -0.37403417
2.6160607 1.5731312 -0.42450985
2.5331051 1.6787884 -0.47626042
2.5531831 1.3748624 -0.11231244
2.5334544 1.3642389 -0.16243443
2.5252545 1.3598801 -0.21258537
2.5021029 1.4921448 -0.25052178
2.5198214 1.3569543 -0.26277584
2.6448028 1.5772448 -0.37379315
2.6133022 1.5584592 -0.42313245
2.5111742 1.6510394 -0.47099617
2.5433891 1.3592987 -0.1116932
2.54125 1.3581555 -0.16265988
2.5172007 1.345359 -0.21155055
2.5256391 1.4954444 -0.25240669
2.5293415 1.3518478 -0.26332444
2.6480365 1.5679165 -0.37355214
2.626708 1.5552878 -0.42450985
2.5295839 1.6517847 -0.47347346
2.5660143 1.3593229 -0.11246724
2.5409174 1.346028 -0.16232172
2.5520771 1.3519969 -0.21406372
2.5053282 1.4710432 -0.24983636
2.5325193 1.3416358 -0.26314157
2.6554775 1.5592058 -0.37379315
2.6084754 1.5316079 -0.42065316
2.525671 1.6360568 -0.47161549
2.5561204 1.343815 -0.11184801
2.543366 1.3371097 -0.16220899
2.5474849 1.3393319 -0.21332455
2.5426457 1.4822326 -0.25309211
2.5261447 1.3281122 -0.2620444
2.6965337 1.5719414 -0.32365254
2.6432102 1.5408566 -0.37138313
2.6081402 1.5204126 -0.41982675
2.5341218 1.6302521 -0.47223482
2.5663457 1.3372078 -0.11208022
2.5553329 1.3314697 -0.16265988
2.5629895 1.3355159 -0.21421155
2.5377104 1.46692 -0.25206399
2.5592551 1.33357 -0.26497021
2.6953878 1.5580653 -0.3228274
2.6539967 1.5341392 -0.37210613
2.596545 1.5009294 -0.41707197
2.548408 1.6262677 -0.47378314
2.5730052 1.3287096 -0.11215763
2.5513248 1.3175138 -0.16209626
2.5590062 1.3215371 -0.21347238
2.5361545 1.4536455 -0.25137857
2.5641255 1.3241808 -0.26497021
2.6786432 1.5353155 -0.32014579
2.6440988 1.5155158 -0.36993712
2.6089034 1.4953429 -0.41817388
2.5526819 1.6158596 -0.47347346
2.5671835 1.3138074 -0.1116932
2.554359 1.3072442 -0.16198353
2.5638328 1.312149 -0.21347238
2.5466628 1.4472939 -0.25189263
2.5618701 1.3111446 -0.26423877
2.6877115 1.5274533 -0.32055834
2.641005 1.5009096 -0.36873212
2.6367557 1.4984946 -0.42175508
2.5686274 1.6127968 -0.47533143
2.5944631 1.3174993 -0.11269945
2.5637946 1.3019253 -0.16232172
2.5910609 1.3158284 -0.21539423
2.5713038 1.3057951 -0.26478735
2.6855664 1.5150921 -0.3197332
2.6214981 1.4789474 -0.36535811
2.5845151 1.458083 -0.41266432
2.5921249 1.6162189 -0.47873771
2.5921338 1.3043878 -0.11238984
2.5685492 1.2925198 -0.16232172
2.5851765 1.3009434 -0.21450722
2.5547159 1.4289532 -0.25172126
2.5742934 1.2954668 -0.26460448
2.6702671 1.4935855 -0.31725785
2.6372979 1.4751444 -0.36680412
2.6105883 1.4602047 -0.41597006
2.5963507 1.6056682 -0.47842807
2.6147821 1.3037963 -0.11316387
2.5839911 1.2884432 -0.16299805
2.6042066 1.2985799 -0.2156899
2.5564508 1.4176474 -0.25137857
2.5915005 1.2922441 -0.26588455
2.6618054 1.4760704 -0.31560764
2.6444232 1.4664313 -0.3670451
2.62112 1.4535087 -0.41679648
2.6140082 1.6033729 -0.48059571
2.6009524 1.2867137 -0.11238984
2.5987649 1.2856315 -0.1636744
2.6064856 1.2895077 -0.21554206
2.5364525 1.3961567 -0.24897958
2.6080432 1.2902783 -0.26716459
2.6594584 1.4638636 -0.3147825
2.6455383 1.4562014 -0.36656311
2.6360857 1.4509984 -0.41844934
2.6055324 1.5869305 -0.47811839
2.5837193 1.4098598 -0.061859969
2.6070454 1.2778556 -0.16389984
2.6398497 1.2939919 -0.2179074
2.5502987 1.3916231 -0.24983636
2.6574631 1.3026257 -0.2717362
2.5949552 1.4159909 -0.30653134
2.6717718 1.4579076 -0.36945513
2.6170416 1.4280429 -0.41459268
2.6316266 1.5896294 -0.48183435
2.5753241 1.5554973 -0.63056386
2.5871105 1.3994292 -0.061817944
2.6282918 1.2763435 -0.11316387
2.6368587 1.2805036 -0.16547796
2.6661043 1.2947633 -0.21968141
2.5361028 1.3718379 -0.24795145
2.6855097 1.3041873 -0.27411342
2.5458853 1.3771296 -0.30013666
2.6509027 1.4339359 -0.36584011
2.5908957 1.4014766 -0.40963408
2.6408253 1.5820042 -0.48245367
2.5809591 1.5460798 -0.5245989
2.5678556 1.5382303 -0.57469124
2.5793285 1.5450419 -0.63015366
2.5809238 1.3856198 -0.061565798
2.6570592 1.2800131 -0.16649248
2.5260351 1.5025944 -0.20068084
2.5386443 1.3629211 -0.24778008
2.5519519 1.3700656 -0.30034295
2.6571438 1.4265399 -0.36608112
2.5743418 1.382086 -0.40632838
2.5693636 1.5282465 -0.46851888
2.5587094 1.5218489 -0.5191021
2.552418 1.5181071 -0.57016605
2.5808051 1.5349299 -0.62933314
2.5983412 1.3827263 -0.061859969
2.5246511 1.4892707 -0.20013587
2.5488999 1.3564157 -0.24829416
2.5639811 1.3644412 -0.30116805
2.6290531 1.3990698 -0.36150208
2.5619028 1.3633353 -0.4035736
2.5766494 1.519823 -0.46882853
2.5557847 1.5074557 -0.51738435
2.5630403 1.5117353 -0.57129735
2.6104662 1.3769251 -0.062028065
2.5300925 1.4800074 -0.20013587
2.5344667 1.3368382 -0.24640925
2.5425711 1.341113 -0.29807386
2.6253827 1.384793 -0.36029708
2.5703866 1.3557847 -0.40412456
2.5634415 1.4993953 -0.46542224
2.5408838 1.4861413 -0.5132618
2.5566959 1.4953897 -0.5686577
2.5108819 1.4685347 -0.60964084
2.6006069 1.3612988 -0.061691873
2.533004 1.4710495 -0.19999963
2.5580735 1.3390347 -0.24829416
2.562634 1.3414218 -0.29993039
2.6297202 1.3765384 -0.36029708
2.5728784 1.3467842 -0.40384907
2.5647221 1.4893501 -0.46480292
2.5489478 1.4801304 -0.51394886
2.5376019 1.473542 -0.56337839
2.4917841 1.4468782 -0.60389721
2.6126785 1.3554412 -0.061859969
2.553941 1.4707174 -0.20122579
2.5611954 1.3287321 -0.2481228
2.5640018 1.330188 -0.29951784
2.6347477 1.3668907 -0.36029708
2.595381 1.3464675 -0.40660384
2.5735881 1.4819118 -0.46542224
2.5526483 1.469795 -0.51360536
2.5446877 1.4652114 -0.56375551
2.4784102 1.4269917 -0.59938443
2.6176288 1.3458562 -0.061859969
2.5610471 1.4623363 -0.20136203
2.574909 1.3238918 -0.24897958
2.5203855 1.5895686 -0.29148713
2.588321 1.3307875 -0.3017869
2.572643 1.3227267 -0.35113904
2.5721111 1.3224533 -0.40219623
2.5584116 1.4607129 -0.46170631
2.5272193 1.4428453 -0.50742143
2.5244553 1.4412674 -0.55809909
2.471724 1.4111048 -0.59651262
2.6004703 1.3267214 -0.061355677
2.5517416 1.4464117 -0.20027211
2.5790553 1.3157959 -0.24897958
2.525367 1.5816427 -0.29148713
2.5995772 1.3262658 -0.30261201
2.5856285 1.3191494 -0.35234404
2.5903695 1.3215683 -0.40440002
2.5956483 1.4711798 -0.46758988
2.555737 1.4484997 -0.51223111
2.5597284 1.4507618 -0.56488675
2.493175 1.4129843 -0.6006152
2.5999622 1.3144748 -0.061229602
2.5318496 1.4229004 -0.14682013
2.5605047 1.4390045 -0.2005446
2.5749693 1.301839 -0.2481228
2.5193112 1.5650237 -0.29012412
2.611522 1.3203192 -0.30343714
2.6117082 1.3204134 -0.35523605
2.559839 1.2941896 -0.3988905
2.5596821 1.4384247 -0.46015799
2.5301111 1.421749 -0.50604725
2.5290701 1.421164 -0.55696779
2.5068696 1.4086313 -0.60266644
2.615489 1.3103105 -0.061481748
2.5528896 1.4224379 -0.095925629
2.5440273 1.4175 -0.14722404
2.537873 1.4140708 -0.19836476
2.5904129 1.2977477 -0.24915093
2.5182519 1.5516028 -0.28934526
2.6554732 1.3303418 -0.30797529
2.6360567 1.3206145 -0.35788706
2.5787342 1.2918969 -0.40109432
2.5770197 1.435765 -0.46232563
2.5180933 1.4028771 -0.50261176
2.5342619 1.411885 -0.55696779
2.4932055 1.3889546 -0.59815365
2.6453483 1.3131624 -0.06207009
2.5475876 1.4072723 -0.095531955
2.5282245 1.3965763 -0.14601232
2.5447853 1.4057244 -0.19850101
2.5933671 1.2873588 -0.24897958
2.5154295 1.5371729 -0.28837168
2.6246939 1.3029095 -0.3038497
2.6088686 1.2950537 -0.35354903
2.5763545 1.2789136 -0.39999241
2.577076 1.4234442 -0.46139663
2.5059712 1.3841125 -0.49917629
2.5462971 1.4063855 -0.55847615
2.4845715 1.3722363 -0.59487158
2.6943061 1.3269315 -0.0631207
2.551996 1.399262 -0.095531955
2.5238423 1.3838252 -0.14550744
2.540441 1.3929262 -0.1978198
2.530977 1.5358347 -0.23720908
2.6045492 1.2827266 -0.24966501
2.5440702 1.5437192 -0.2910977
2.6323435 1.2964152 -0.30426225
2.62183 1.2912374 -0.35475406
2.5785825 1.2699382 -0.39971691
2.5486162 1.3972931 -0.45551306
2.5051241 1.3733915 -0.49814564
2.4921451 1.3662759 -0.54565495
2.4940197 1.367247 -0.59610236
2.5571074 1.389899 -0.095531955
2.5306523 1.3755195 -0.14560841
2.5209856 1.3702651 -0.19591245
2.5092587 1.5101001 -0.23465329
2.6665394 1.3011345 -0.25514838
2.4678476 1.4851198 -0.28175142
2.6674709 1.3015889 -0.307769
2.6051328 1.2711712 -0.35186204
2.5671971 1.2526604 -0.39723763
2.5433042 1.3822813 -0.45365509
2.4997542 1.3585556 -0.49608433
2.4867816 1.3515052 -0.54339242
2.5127733 1.3655742 -0.59938443
2.5509059 1.3761643 -0.095138274
2.5191395 1.359027 -0.14469962
2.5191245 1.5052775 -0.2351325
2.6975174 1.3057739 -0.25771871
2.6643844 1.2897354 -0.30694389
2.6144748 1.2655759 -0.35258505
2.5800347 1.2489047 -0.398615
2.542417 1.3714702 -0.4527261
2.4988077 1.3478894 -0.49505371
2.4841006 1.3399562 -0.54188401
2.5015454 1.3493099 -0.5956921
2.598717 1.5520985 -0.68736959
2.5619316 1.530007 -0.72991067
2.559458 1.3686908 -0.095269501
2.5399563 1.3582621 -0.14560841
2.5320137 1.3540148 -0.19604869
2.5194795 1.4929854 -0.23465329
2.6798561 1.2851224 -0.30818155
2.6226761 1.2577018 -0.35306704
2.575664 1.2351573 -0.39723763
2.5108359 1.342577 -0.4462232
2.4863563 1.3294317 -0.49161822
2.4855309 1.3289902 -0.54112983
2.5012956 1.3373634 -0.59446132
2.4989879 1.4800177 -0.71042734
2.4970129 1.4786712 -0.76056474
2.5814483 1.3683068 -0.044112045
2.5467958 1.3499391 -0.094613373
2.51668 1.3339761 -0.14399278
2.5401635 1.49269 -0.18371212
2.5404854 1.3465943 -0.19632117
2.5197783 1.4807109 -0.23417407
2.6719701 1.2693163 -0.3067376
2.6057479 1.2378576 -0.35017502
2.5765953 1.2240086 -0.39668667
2.5244689 1.3379917 -0.44777149
2.4981756 1.3240004 -0.4929924
2.4955916 1.3226308 -0.54226112
2.5096395 1.33002 -0.59528184
2.4923043 1.4638641 -0.65636706
2.5161221 1.4777354 -0.71375376
2.5024157 1.4695092 -0.76056474
2.4865091 1.4600518 -0.80595118
2.5988383 1.3653467 -0.044323396
2.5729613 1.3517517 -0.095400728
2.546308 1.337749 -0.14540645
2.5663135 1.4954298 -0.18520573
2.5595353 1.3446981 -0.19741109
2.5286334 1.473473 -0.23449355
2.6084709 1.2274534 -0.34993401
2.5810642 1.2145567 -0.39668667
2.5206099 1.3241357 -0.4462232
2.4908018 1.3084214 -0.49058756
2.5004225 1.313475 -0.54226112
2.4937022 1.3098893 -0.59035879
2.4858556 1.4478483 -0.65326685
2.5030549 1.4577487 -0.70852655
2.4843788 1.4466978 -0.75346619
2.4851856 1.4470515 -0.80379766
2.597795 1.3544019 -0.044232816
2.5647879 1.3371931 -0.094941437
2.5381 1.3232789 -0.14469962
2.5623598 1.4823622 -0.1845834
2.5549004 1.332038 -0.19672988
2.5297987 1.4635251 -0.23417407
2.6339035 1.229329 -0.35282603
2.5866621 1.2072799 -0.39696217
2.5265093 1.3171238 -0.44653285
2.4983943 1.3024113 -0.49127465
2.5027947 1.3047054 -0.54188401
2.4995408 1.3029536 -0.59076905
2.5022106 1.4468657 -0.65636706
2.5042584 1.4479331 -0.70757616
2.5056605 1.4485688 -0.75853658
2.4913869 1.4402009 -0.80433607
2.5974119 1.3421174 -0.044142239
2.5678959 1.326866 -0.094875827
2.5518057 1.318552 -0.1452045
2.5591183 1.4679946 -0.18396106
2.5579927 1.321749 -0.19659364
2.5316873 1.4522591 -0.23385461
2.740134 1.5717676 -0.3090114
2.6257763 1.2138354 -0.35113904
2.5820792 1.1936351 -0.39558476
2.5225427 1.3033199 -0.44498456
2.4978998 1.2905325 -0.49024403
2.51105 1.2973264 -0.54263824
2.5042996 1.2937835 -0.59076905
2.4736576 1.418283 -0.64750922
2.4859531 1.4252173 -0.70092332
2.4891334 1.4268674 -0.75194502
2.4665687 1.4138181 -0.79464525
2.6201134 1.3417032 -0.04444417
2.5780795 1.3201786 -0.095072664
2.5655107 1.3137425 -0.1457094
2.5974486 1.4773557 -0.18632592
2.5645959 1.313274 -0.19672988
2.5577879 1.4547979 -0.23577145
2.7164626 1.5449848 -0.30570126
2.6320128 1.2050297 -0.35138002
2.6044481 1.1924095 -0.39833954
2.5220265 1.2913641 -0.44405556
2.5008593 1.2804706 -0.48990047
2.5052984 1.2827435 -0.54037565
2.5316756 1.2961931 -0.59610236
2.5025764 1.4227015 -0.65370971
2.4996047 1.4208966 -0.70329934
2.4808905 1.4100868 -0.74788868
2.4834564 1.4114305 -0.79841393
2.6260982 1.3343712 -0.04447436
2.5929067 1.3175058 -0.095466338
2.5660639 1.3038665 -0.14550744
2.549931 1.4397457 -0.18259193
2.5814419 1.4575373 -0.23752855
2.705703 1.5276356 -0.30394882
2.6538637 1.2049632 -0.35379004
2.6099849 1.1850405 -0.398615
2.5207863 1.2807494 -0.44312656
2.5101392 1.2752849 -0.49093112
2.5408354 1.2908802 -0.54716337
2.5462062 1.2935529 -0.59856391
2.4985409 1.4100395 -0.65149522
2.5040562 1.4130368 -0.70329934
2.4954181 1.4079901 -0.75093096
2.4744575 1.3960497 -0.7941069
2.6399019 1.3292338 -0.044625327
2.5941474 1.3061956 -0.095335118
2.5715287 1.4395947 -0.13155767
2.5743937 1.2962493 -0.1457094
2.5429986 1.4235647 -0.18172067
2.5841689 1.3011713 -0.19754733
2.5589333 1.432485 -0.23497276
2.7269161 1.5264587 -0.30570126
2.6492083 1.1911573 -0.35258505
2.6161175 1.1762788 -0.3988905
2.521934 1.2697246 -0.44250724
2.511277 1.2643042 -0.49024403
2.5227432 1.270077 -0.54226112
2.5421882 1.2798109 -0.59651262
2.4968841 1.3970633 -0.64972365
2.4905689 1.3934156 -0.69807214
2.473547 1.3837222 -0.74281824
2.4778767 1.3860307 -0.79356849
2.6644397 1.3293699 -0.044957452
2.6132267 1.3038181 -0.095860019
2.5435953 1.4117376 -0.12986302
2.6059375 1.3001814 -0.14722404
2.5359817 1.407454 -0.1808494
2.5782077 1.2863462 -0.19672988
2.5606799 1.4211615 -0.23465329
2.699424 1.4981019 -0.30200168
2.6312692 1.1715167 -0.40054336
2.530107 1.262237 -0.44312656
2.5264723 1.2603686 -0.49230531
2.5431995 1.2687132 -0.54565495
2.5521169 1.2731061 -0.59774339
2.5122209 1.3935788 -0.652381
2.5024548 1.3880471 -0.69997293
2.4853694 1.3784002 -0.7448464
2.4778864 1.374137 -0.79195338
2.6226842 1.2982624 -0.096056856
2.5427678 1.4008474 -0.12959546
2.5992684 1.2866713 -0.14661819
2.522907 1.3898485 -0.17960474
2.5965421 1.2853218 -0.1978198
2.5249701 1.3909849 -0.23097934
2.5663831 1.4137408 -0.28661928
2.6349368 1.1632445 -0.40054336
2.5393724 1.2569116 -0.44405556
2.5268879 1.2506772 -0.49161822
2.5506933 1.2624598 -0.54640919
2.5561037 1.2650821 -0.59774339
2.5046272 1.3790945 -0.64928079
2.4914865 1.3717457 -0.69569612
2.4761291 1.3631213 -0.74079007
2.4686918 1.3589149 -0.78764635
2.5373638 1.3857721 -0.1290603
2.6201072 1.2850521 -0.14752696
2.5384955 1.3863326 -0.18035154
2.6496058 1.2995199 -0.20149827
2.5527973 1.3941432 -0.23305592
2.5540779 1.3947847 -0.28467211
2.6500733 1.1583395 -0.40219623
2.5350919 1.2432458 -0.44250724
2.5049198 1.2283947 -0.48646498
2.5341415 1.2427249 -0.54188401
2.5536933 1.2522576 -0.59610236
2.5130887 1.3717742 -0.65016657
2.4982028 1.3635355 -0.69617128
2.4794102 1.3531098 -0.74028301
2.4719653 1.3489349 -0.787108
2.5674059 1.2475516 -0.093694799
2.5371549 1.3736092 -0.12879273
2.6247995 1.2754402 -0.14752696
2.5382934 1.3741684 -0.17997815
2.6669137 1.2959044 -0.20245194
2.529839 1.3695914 -0.23050013
2.5434186 1.3768857 -0.2829197
2.6633911 1.1525524 -0.4035736
2.5556266 1.2417175 -0.4452942
2.5164938 1.2226496 -0.48783916
2.5227795 1.2257034 -0.53849018
2.5670693 1.2471664 -0.59815365
2.530107 1.3690512 -0.65326685
2.4963489 1.350672 -0.69427049
2.4945626 1.3495367 -0.74332529
2.4751985 1.3389492 -0.7865696
2.5492144 1.36808 -0.1291495
2.6816497 1.2909368 -0.1504553
2.5450718 1.3657997 -0.18010262
2.5330851 1.3593671 -0.23034039
2.5554638 1.3713191 -0.28369856
2.6675975 1.1427828 -0.4035736
2.5459175 1.2254864 -0.44281691
2.5280595 1.216836 -0.48921338
2.5307944 1.2181524 -0.53924435
2.5345833 1.2199216 -0.58953828
2.5282331 1.3560812 -0.65149522
2.5012827 1.3415134 -0.69427049
2.4960823 1.3385559 -0.74231124
2.4665091 1.3225862 -0.78226256
2.5499728 1.3581861 -0.12897111
2.538779 1.3521672 -0.17935582
2.5267856 1.3457795 -0.22938198
2.552732 1.3595414 -0.2829197
2.5497551 1.2174822 -0.44281691
2.5176458 1.2020963 -0.48646498
2.527519 1.2068106 -0.537736
2.5260379 1.2060492 -0.58666646
2.5238726 1.3435495 -0.64928079
2.5140593 1.3382128 -0.69664651
2.4900281 1.325254 -0.73926896
2.4859555 1.322975 -0.787108
2.5460992 1.3441669 -0.12852515
2.5313613 1.3363298 -0.17848454
2.5352273 1.3383708 -0.22970144
2.5559373 1.3492467 -0.28272498
2.5542002 1.2081287 -0.44281691
2.5416269 1.2021272 -0.49024403
2.544354 1.2034172 -0.54037565
2.5145156 1.1892506 -0.58297414
2.5236053 1.3315595 -0.64795208
2.5120742 1.3253633 -0.69474572
2.5068467 1.3224374 -0.74281824
2.4737508 1.304868 -0.78172421
2.5563195 1.3376049 -0.12879273
2.5556974 1.3372226 -0.17985368
2.5471814 1.3327667 -0.23034039
2.5696838 1.3444836 -0.28369856
2.5514541 1.1954057 -0.44157827
2.5317423 1.1861166 -0.48749563
2.5256257 1.1832509 -0.53547341
2.5224028 1.1816872 -0.58379465
2.523284 1.3195897 -0.64662343
2.501421 1.308045 -0.69046885
2.4962468 1.3051728 -0.73825485
2.4870517 1.3002546 -0.78441608
2.5640557 1.331409 -0.12897111
2.5457134 1.3218281 -0.17885795
2.5602024 1.3293514 -0.23113908
2.573895 1.3364041 -0.28369856
2.5731156 1.1957109 -0.44467488
2.5497506 1.1847992 -0.49024403
2.5471427 1.1835874 -0.53924435
2.5278778 1.1745819 -0.58420491
2.5429969 1.3197416 -0.65060943
2.5141399 1.3046542 -0.69284487
2.5123556 1.3035613 -0.74180418
2.4859948 1.2897737 -0.78280097
2.5671415 1.3210881 -0.12888192
2.5576406 1.3161422 -0.17935582
2.561512 1.3181344 -0.2308196
2.5947051 1.3351581 -0.28545097
2.5667114 1.1813154 -0.44281691
2.5433371 1.1705036 -0.48818272
2.5425425 1.170138 -0.53735888
2.5303876 1.1644906 -0.58379465
2.547817 1.3104122 -0.65060943
2.5154495 1.2936537 -0.69189447
2.5067935 1.289036 -0.7387619
2.4787145 1.274488 -0.77903229
2.5879855 1.3198397 -0.12968464
2.5731168 1.3122002 -0.18010262
2.5858622 1.3186998 -0.23257671
2.5942616 1.3229263 -0.28486684
2.5764177 1.1743585 -0.44374588
2.5547814 1.1644427 -0.48955691
2.5486014 1.1616259 -0.537736
2.5328577 1.1543965 -0.58338439
2.5508652 1.3001795 -0.65016657
2.5288286 1.2888362 -0.69427049
2.5149486 1.2815963 -0.73977602
2.5005312 1.2741394 -0.78441608
2.5796399 1.3053879 -0.1290603
2.5701022 1.300505 -0.17960474
2.5775404 1.3042688 -0.23145856
2.6108375 1.3210604 -0.28622985
2.5872962 1.1695141 -0.44498456
2.5620177 1.1580338 -0.49024403
2.5665565 1.1600854 -0.54075277
2.5507417 1.1528834 -0.58666646
2.5410137 1.2851176 -0.64662343
2.5345988 1.281762 -0.69474572
2.5224154 1.2754351 -0.74079007
2.4993649 1.2636702 -0.78280097
2.5496988 1.42101 -0.078525461
2.6040537 1.3057758 -0.13004141
2.5855577 1.2964447 -0.18035154
2.5983424 1.3028553 -0.23289618
2.6210001 1.3141588 -0.28681397
2.5843515 1.1567943 -0.44374588
2.5590515 1.145416 -0.48886982
2.5528638 1.1426466 -0.53698182
2.54423 1.1387287 -0.58420491
2.5491943 1.2775433 -0.64750922
2.5253847 1.2655008 -0.69094408
2.5132358 1.2592481 -0.73673373
2.4970911 1.2510499 -0.78064746
2.5723894 1.4213243 -0.079063304
2.5998755 1.2917775 -0.12959546
2.5849292 1.284295 -0.17997815
2.5888171 1.2862266 -0.23161829
2.6311469 1.3072004 -0.28739813
2.5994124 1.1521183 -0.44560388
2.5776427 1.1424156 -0.49161822
2.5749915 1.1412406 -0.54075277
2.5770199 1.1420858 -0.59076905
2.5643406 1.2733961 -0.65016657
2.5369663 1.2596922 -0.69284487
2.531697 1.2569107 -0.74079007
2.5137367 1.2478845 -0.78441608
2.5768418 1.4132359 -0.079063304
2.6110892 1.287137 -0.12995222
2.5817895 1.2726376 -0.17948028
2.6071506 1.2851388 -0.23289618
2.6566653 1.3094884 -0.28973469
2.5939746 1.1399715 -0.44405556
2.5848267 1.1358975 -0.49230531
2.5929494 1.139467 -0.54376948
2.5519221 1.1213844 -0.58420491
2.5665789 1.2644718 -0.64972365
2.5409112 1.2517159 -0.69284487
2.5165422 1.2395475 -0.73521262
2.5176446 1.2399812 -0.78441608
2.5749784 1.3999619 -0.078848168
2.6247659 1.2819425 -0.13039818
2.649214 1.2938257 -0.18383659
2.6548367 1.2965716 -0.23672986
2.6614468 1.2997425 -0.28973469
2.6108179 1.1359748 -0.4462232
2.5871658 1.1256299 -0.49196175
2.6043124 1.13309 -0.54527789
2.5847342 1.1245183 -0.59076905
2.5711961 1.2550563 -0.64972365
2.5559571 1.2475073 -0.69569612
2.5436711 1.241346 -0.74180418
2.5394831 1.2391924 -0.78979987
2.588892 1.3952574 -0.07911709
2.6222527 1.2688326 -0.13004141
2.6503448 1.2823684 -0.18358767
2.6823189 1.2977813 -0.29148713
2.6240375 1.1303064 -0.44777149
2.6057506 1.1223754 -0.49471015
2.6102519 1.1243142 -0.54565495
2.5996251 1.1196831 -0.59323055
2.5722671 1.2439258 -0.64883786
2.5622613 1.2389766 -0.69617128
2.5464621 1.2311724 -0.74129713
2.5422738 1.229038 -0.78926152
2.5862107 1.3833454 -0.078901954
2.6586485 1.2761511 -0.13164686
2.6759551 1.2844008 -0.18508126
2.6293926 1.1228331 -0.44808117
2.6002038 1.110315 -0.4929924
2.6119647 1.115337 -0.54527789
2.5708869 1.233308 -0.64750922
2.5591345 1.22756 -0.69427049
2.5433397 1.2198199 -0.73926896
2.5461223 1.2210451 -0.78926152
2.5718336 1.3635556 -0.078310326
2.6407702 1.1162655 -0.44931981
2.6332927 1.1130507 -0.49848917
2.5947671 1.2330853 -0.652381
2.5706353 1.2215073 -0.69617128
2.5617733 1.2171319 -0.74332529
2.5558002 1.2141846 -0.79087663
2.6033609 1.3680705 -0.07911709
2.5604477 1.2052921 -0.64263737
2.5645485 1.2071131 -0.6933201
2.548712 1.199496 -0.73825485
2.5375762 1.194147 -0.78387773
2.5916915 1.3515649 -0.078633033
2.5571527 1.1939418 -0.6408658
2.5947332 1.2113779 -0.7004481
2.5261719 1.1792082 -0.73064923
2.5256066 1.1788369 -0.77903229
2.6161649 1.3521544 -0.079224661
2.5526605 1.1804682 -0.63865137
2.5480189 1.1782137 -0.68666726
2.5287209 1.1691295 -0.73014218
2.5264134 1.1679556 -0.77795559
2.6068678 1.335265 -0.078794383
2.5463307 1.1662314 -0.63599402
2.534657 1.1607778 -0.68191522
2.5224347 1.1550207 -0.7270999
2.5271747 1.1570843 -0.77687883
2.6313546 1.3356555 -0.079386011
2.5488119 1.1560853 -0.6355511
2.5495102 1.1562946 -0.68476647
2.538985 1.1513608 -0.73064923
2.5331528 1.1486094 -0.77741718
2.6194673 1.3192885 -0.078901954
2.5577674 1.1504723 -0.6368798
2.5460432 1.1450919 -0.68286562
2.5425894 1.1433786 -0.73064923
2.5174246 1.1319566 -0.77149504
2.5690932 1.144264 -0.63865137
2.5502229 1.1357526 -0.68286562
2.541461 1.131691 -0.72912806
2.5444317 1.1329073 -0.77849394
2.5625629 1.1301181 -0.63599402
2.5614789 1.1295333 -0.68476647
2.5509026 1.12471 -0.73064923
2.5397544 1.1196887 -0.77580208
2.5732486 1.1251876 -0.63776559
2.5578947 1.1183676 -0.68286562
2.5579686 1.1182404 -0.73166329
2.6809237 1.1718799 -0.81779552
2.5952537 1.1234969 -0.64219451
2.5887194 1.1205609 -0.68999368
2.6172805 1.1216599 -0.64662343
