# .PCD v0.7 - Point Cloud Data file format
VERSION 0.7
FIELDS x y z normal_x normal_y normal_z curvature
SIZE 4 4 4 4 4 4 4
TYPE F F F F F F F
COUNT 1 1 1 1 1 1 1
WIDTH 875
HEIGHT 1
VIEWPOINT 0 0 0 1 0 0 0
POINTS 875
DATA ascii
-0.30840206 0.68094969 -0.60322648 0 0 0 2.2440864e-38
-0.31129122 0.67427301 -0.69006956 0 0 0 2.2440864e-38
-0.28313327 0.6998148 -0.10501906 0 0 0 2.2440864e-38
-0.020964146 0.73822403 -0.38111621 0 0 0 2.2440864e-38
-0.30678308 0.64563131 -0.42461899 0 0 0 2.2440864e-38
-0.068048 0.64205885 -0.46228069 0 0 0 2.2440864e-38
-0.30369997 0.65269518 -0.51281083 0 0 0 2.2440864e-38
-0.30917406 0.64015341 -0.59864748 0 0 0 2.2440864e-38
-0.30412567 0.65171957 -0.68759024 0 0 0 2.2440864e-38
-0.27765369 0.66684294 -0.10443072 0 0 0 2.2440864e-38
0.0047829151 0.747787 -0.38259456 0 0 0 2.2440864e-38
-0.28136778 0.6584177 -0.4265039 0 0 0 2.2440864e-38
-0.042665958 0.65176868 -0.46410933 0 0 0 2.2440864e-38
-0.28950799 0.63995266 -0.51219201 0 0 0 2.2440864e-38
-0.28300989 0.65469265 -0.60153949 0 0 0 2.2440864e-38
-0.28593171 0.64806509 -0.68814117 0 0 0 2.2440864e-38
-0.26018929 0.66129255 -0.10447275 0 0 0 2.2440864e-38
0.039532185 0.77507162 -0.38555124 0 0 0 2.2440864e-38
-0.26798964 0.64377308 -0.42581847 0 0 0 2.2440864e-38
-0.0011832714 0.69343376 -0.46922952 0 0 0 2.2440864e-38
-0.27781034 0.62171507 -0.51095432 0 0 0 2.2440864e-38
-0.27690148 0.62375641 -0.59840643 0 0 0 2.2440864e-38
-0.27821231 0.62081194 -0.68511093 0 0 0 2.2440864e-38
-0.24347591 0.66039038 -0.10459882 0 0 0 2.2440864e-38
-0.24644232 0.6537838 -0.42736068 0 0 0 2.2440864e-38
0.036429167 0.732512 -0.473984 0 0 0 2.2440864e-38
-0.26286316 0.61721134 -0.51116061 0 0 0 2.2440864e-38
-0.25869679 0.62649107 -0.59961146 0 0 0 2.2440864e-38
-0.26570582 0.61088037 -0.68456 0 0 0 2.2440864e-38
-0.22767448 0.65106726 -0.1045568 0 0 0 2.2440864e-38
-0.22490239 0.65718126 -0.4283888 0 0 0 2.2440864e-38
0.066833496 0.75062609 -0.47672695 0 0 0 2.2440864e-38
-0.24721575 0.60796881 -0.51095432 0 0 0 2.2440864e-38
-0.24383354 0.61542845 -0.59912944 0 0 0 2.2440864e-38
-0.24353385 0.61608887 -0.68648833 0 0 0 2.2440864e-38
-0.20941687 0.64714336 -0.10464084 0 0 0 2.2440864e-38
-0.21077561 0.64417553 -0.42787474 0 0 0 2.2440864e-38
-0.2324369 0.59686327 -0.51054174 0 0 0 2.2440864e-38
-0.23315668 0.59529114 -0.59744245 0 0 0 2.2440864e-38
-0.22954297 0.60318375 -0.68566191 0 0 0 2.2440864e-38
-0.20861459 0.61156273 -0.10396846 0 0 0 2.2440864e-38
-0.19072676 0.65031052 -0.42907423 0 0 0 2.2440864e-38
-0.2100451 0.60846376 -0.51260453 0 0 0 2.2440864e-38
-0.20496082 0.6194768 -0.60153949 0 0 0 2.2440864e-38
-0.20965743 0.60930347 -0.68759024 0 0 0 2.2440864e-38
-0.41858387 0.6714077 -0.77074915 0 0 0 2.2440864e-38
-0.17780614 0.63474321 -0.10468287 0 0 0 2.2440864e-38
-0.17161155 0.64803314 -0.42958829 0 0 0 2.2440864e-38
-0.19360852 0.60083914 -0.51260453 0 0 0 2.2440864e-38
-0.19267774 0.60283613 -0.60033447 0 0 0 2.2440864e-38
-0.19656515 0.59449577 -0.68648833 0 0 0 2.2440864e-38
-0.41475654 0.63350868 -0.76548487 0 0 0 2.2440864e-38
-0.42751157 0.60245705 -0.84581691 0 0 0 2.2440864e-38
-0.44696808 0.5552125 -1.0059484 0 0 0 2.2440864e-38
-0.1655302 0.61795425 -0.10447275 0 0 0 2.2440864e-38
-0.15078807 0.64928293 -0.43044508 0 0 0 2.2440864e-38
-0.16703582 0.61475468 -0.51507992 0 0 0 2.2440864e-38
-0.16865373 0.6113162 -0.60250348 0 0 0 2.2440864e-38
-0.18017983 0.58682203 -0.68648833 0 0 0 2.2440864e-38
-0.40965772 0.59928894 -0.76083994 0 0 0 2.2440864e-38
-0.42021465 0.5738163 -0.84169436 0 0 0 2.2440864e-38
-0.43662655 0.53455734 -0.91860092 0 0 0 2.2440864e-38
-0.43978536 0.5267849 -1.0010253 0 0 0 2.2440864e-38
-0.14455414 0.62573528 -0.10480894 0 0 0 2.2440864e-38
-0.13315368 0.64976645 -0.4311305 0 0 0 2.2440864e-38
-0.140136 0.63504791 -0.51817411 0 0 0 2.2440864e-38
-0.14859796 0.61721134 -0.60419047 0 0 0 2.2440864e-38
-0.1559689 0.6016736 -0.68979406 0 0 0 2.2440864e-38
-0.39175642 0.60248804 -0.76238829 0 0 0 2.2440864e-38
-0.40316975 0.57520676 -0.84306854 0 0 0 2.2440864e-38
-0.42124093 0.53235722 -0.91935509 0 0 0 2.2440864e-38
-0.41986513 0.53540468 -1.0043074 0 0 0 2.2440864e-38
-0.10041738 0.67558002 -0.10615373 0 0 0 2.2440864e-38
-0.30509448 0.76085949 -0.34441355 0 0 0 2.2440864e-38
-0.11054134 0.65443993 -0.43232998 0 0 0 2.2440864e-38
-0.12274313 0.62896156 -0.51838034 0 0 0 2.2440864e-38
-0.13641739 0.60040808 -0.6029855 0 0 0 2.2440864e-38
-0.1361351 0.60099792 -0.69089597 0 0 0 2.2440864e-38
-0.3699193 0.60825396 -0.76455593 0 0 0 2.2440864e-38
-0.38067544 0.58279133 -0.84581691 0 0 0 2.2440864e-38
-0.40662158 0.5218935 -0.91860092 0 0 0 2.2440864e-38
-0.41750622 0.49613476 -0.99692273 0 0 0 2.2440864e-38
-0.28888738 0.75174952 -0.34427729 0 0 0 2.2440864e-38
-0.084397078 0.6661849 -0.43421489 0 0 0 2.2440864e-38
-0.092378855 0.64967346 -0.52168083 0 0 0 2.2440864e-38
-0.099272013 0.6354146 -0.60876954 0 0 0 2.2440864e-38
-0.10162091 0.63055563 -0.69668096 0 0 0 2.2440864e-38
-0.31989479 0.67925787 -0.77787137 0 0 0 2.2440864e-38
-0.3362906 0.640944 -0.8581847 0 0 0 2.2440864e-38
-0.35167634 0.60519648 -0.93745559 0 0 0 2.2440864e-38
-0.39528883 0.50365543 -1.0002048 0 0 0 2.2440864e-38
-0.28785312 0.71434927 -0.34196123 0 0 0 2.2440864e-38
-0.067507505 0.66463232 -0.43472898 0 0 0 2.2440864e-38
-0.080774069 0.6374073 -0.52106202 0 0 0 2.2440864e-38
-0.078139782 0.64281321 -0.61069751 0 0 0 2.2440864e-38
-0.093536139 0.61121798 -0.69475263 0 0 0 2.2440864e-38
-0.31187606 0.65857124 -0.77539408 0 0 0 2.2440864e-38
-0.32131314 0.63661623 -0.85852826 0 0 0 2.2440864e-38
-0.32038832 0.63874674 -0.94575167 0 0 0 2.2440864e-38
-0.36593616 0.5336175 -1.0084099 0 0 0 2.2440864e-38
-0.28589129 0.67310762 -0.16317855 0 0 0 2.2440864e-38
-0.26061225 0.73076582 -0.34373236 0 0 0 2.2440864e-38
-0.044709682 0.66900158 -0.43592846 0 0 0 2.2440864e-38
-0.057208538 0.6435895 -0.52271223 0 0 0 2.2440864e-38
-0.059825659 0.63826847 -0.61117953 0 0 0 2.2440864e-38
-0.053484678 0.65116072 -0.70219052 0 0 0 2.2440864e-38
-0.30953717 0.61874723 -0.76982015 0 0 0 2.2440864e-38
-0.30872881 0.62037754 -0.85681051 0 0 0 2.2440864e-38
-0.31409383 0.60814238 -0.94084942 0 0 0 2.2440864e-38
-0.33012009 0.57138205 -1.0186663 0 0 0 2.2440864e-38
-0.26269507 0.68049049 -0.075301461 0 0 0 2.2440864e-38
-0.27164531 0.66027784 -0.1629817 0 0 0 2.2440864e-38
-0.25180602 0.70508099 -0.34236994 0 0 0 2.2440864e-38
-0.016534328 0.68397379 -0.43815607 0 0 0 2.2440864e-38
-0.035336971 0.64609623 -0.52394992 0 0 0 2.2440864e-38
-0.022094011 0.67277384 -0.61696357 0 0 0 2.2440864e-38
-0.013111115 0.69086981 -0.7096284 0 0 0 2.2440864e-38
-0.28586161 0.62774754 -0.77260715 0 0 0 2.2440864e-38
-0.28825867 0.62212229 -0.85852826 0 0 0 2.2440864e-38
-0.28811359 0.62244987 -0.94537461 0 0 0 2.2440864e-38
-0.31302595 0.56598806 -1.0190766 0 0 0 2.2440864e-38
-0.27039456 0.62482262 -0.074486256 0 0 0 2.2440864e-38
-0.27043319 0.62473631 -0.1619319 0 0 0 2.2440864e-38
-0.24748254 0.67612982 -0.25223982 0 0 0 2.2440864e-38
-0.23334408 0.7077899 -0.34305114 0 0 0 2.2440864e-38
0.0058164597 0.69287205 -0.43969828 0 0 0 2.2440864e-38
0.010024786 0.70128345 -0.53116971 0 0 0 2.2440864e-38
0.051718473 0.78461599 -0.63311064 0 0 0 2.2440864e-38
0.056191683 0.79355669 -0.72670794 0 0 0 2.2440864e-38
-0.28057361 0.60160875 -0.76920086 0 0 0 2.2440864e-38
-0.28216004 0.59784651 -0.85509276 0 0 0 2.2440864e-38
-0.27718306 0.60899019 -0.94386619 0 0 0 2.2440864e-38
-0.29906869 0.55978012 -1.0190766 0 0 0 2.2440864e-38
-0.24732065 0.63200331 -0.074727796 0 0 0 2.2440864e-38
-0.25147128 0.62279987 -0.16212875 0 0 0 2.2440864e-38
-0.24147272 0.64497089 -0.25092712 0 0 0 2.2440864e-38
-0.21982431 0.69297457 -0.3425062 0 0 0 2.2440864e-38
0.047708511 0.73426151 -0.44449624 0 0 0 2.2440864e-38
0.06894207 0.77631474 -0.54086483 0 0 0 2.2440864e-38
0.074168205 0.78666496 -0.63455665 0 0 0 2.2440864e-38
0.066161871 0.7708087 -0.72450411 0 0 0 2.2440864e-38
-0.26172447 0.59964609 -0.7701298 0 0 0 2.2440864e-38
-0.26819205 0.58509827 -0.85406208 0 0 0 2.2440864e-38
-0.25912881 0.60519266 -0.94462037 0 0 0 2.2440864e-38
-0.27959061 0.5596199 -1.0207176 0 0 0 2.2440864e-38
-0.24143481 0.60738468 -0.074425869 0 0 0 2.2440864e-38
-0.23733568 0.61639833 -0.16212875 0 0 0 2.2440864e-38
-0.22809434 0.6367197 -0.25082615 0 0 0 2.2440864e-38
-0.20959854 0.67739153 -0.34182501 0 0 0 2.2440864e-38
0.07665205 0.75533438 -0.44723791 0 0 0 2.2440864e-38
0.077242851 0.756495 -0.5394209 0 0 0 2.2440864e-38
0.079862356 0.76164341 -0.72422868 0 0 0 2.2440864e-38
-0.24357176 0.60227013 -0.77167815 0 0 0 2.2440864e-38
-0.24846506 0.59130383 -0.85646695 0 0 0 2.2440864e-38
-0.24179602 0.60596704 -0.94612879 0 0 0 2.2440864e-38
-0.25916982 0.56756163 -1.0239997 0 0 0 2.2440864e-38
-0.22500181 0.59987545 -0.074425869 0 0 0 2.2440864e-38
-0.22003579 0.61069059 -0.16219436 0 0 0 2.2440864e-38
-0.22322345 0.60374832 -0.24941246 0 0 0 2.2440864e-38
-0.17958689 0.69877815 -0.34400484 0 0 0 2.2440864e-38
-0.42150998 0.69039965 -0.48269644 0 0 0 2.2440864e-38
0.0887146 0.73709536 -0.72174937 0 0 0 2.2440864e-38
-0.23210526 0.58399534 -0.76982015 0 0 0 2.2440864e-38
-0.23702478 0.57307768 -0.85440564 0 0 0 2.2440864e-38
-0.22700787 0.59488916 -0.94537461 0 0 0 2.2440864e-38
-0.24451685 0.55656004 -1.0231792 0 0 0 2.2440864e-38
-0.20607328 0.59774876 -0.074516445 0 0 0 2.2440864e-38
-0.19770551 0.61579704 -0.16265365 0 0 0 2.2440864e-38
-0.20344353 0.60342073 -0.24981637 0 0 0 2.2440864e-38
-0.16281962 0.69104147 -0.34400484 0 0 0 2.2440864e-38
-0.37764728 0.74971533 -0.401099 0 0 0 2.2440864e-38
-0.40249991 0.68907213 -0.48328057 0 0 0 2.2440864e-38
0.10744333 0.73189306 -0.72230035 0 0 0 2.2440864e-38
-0.20993996 0.58899975 -0.7719878 0 0 0 2.2440864e-38
-0.21574473 0.57627726 -0.85646695 0 0 0 2.2440864e-38
-0.20814204 0.59267282 -0.94650584 0 0 0 2.2440864e-38
-0.22085881 0.56504488 -1.0268714 0 0 0 2.2440864e-38
-0.1871326 0.59554338 -0.074607022 0 0 0 2.2440864e-38
-0.18547916 0.59907532 -0.16232559 0 0 0 2.2440864e-38
-0.18702531 0.59577227 -0.24981637 0 0 0 2.2440864e-38
-0.14015913 0.69589376 -0.34495851 0 0 0 2.2440864e-38
-0.37676036 0.70404482 -0.39774451 0 0 0 2.2440864e-38
-0.38805854 0.6766386 -0.48269644 0 0 0 2.2440864e-38
0.1151526 0.70554924 -0.71954554 0 0 0 2.2440864e-38
-0.18938613 0.59032249 -0.77353609 0 0 0 2.2440864e-38
-0.19441366 0.57938051 -0.85852826 0 0 0 2.2440864e-38
-0.18510127 0.59927225 -0.94952261 0 0 0 2.2440864e-38
-0.2070713 0.55214167 -1.0256407 0 0 0 2.2440864e-38
-0.39978635 0.64441299 -1.3696325 0 0 0 2.2440864e-38
-0.15857387 0.61968422 -0.075120308 0 0 0 2.2440864e-38
-0.16800618 0.59969759 -0.16258803 0 0 0 2.2440864e-38
-0.16189289 0.61265182 -0.25112906 0 0 0 2.2440864e-38
-0.1113174 0.71981907 -0.34727457 0 0 0 2.2440864e-38
-0.36236906 0.69803667 -0.39774451 0 0 0 2.2440864e-38
-0.36836481 0.68351507 -0.48405945 0 0 0 2.2440864e-38
0.13416266 0.7067585 -0.72092295 0 0 0 2.2440864e-38
-0.18294311 0.5676446 -0.77074915 0 0 0 2.2440864e-38
-0.18546081 0.56210947 -0.85646695 0 0 0 2.2440864e-38
-0.17355514 0.58733368 -0.94839132 0 0 0 2.2440864e-38
-0.17811823 0.57746458 -1.0330253 0 0 0 2.2440864e-38
-0.37668133 0.66123867 -1.1183043 0 0 0 2.2440864e-38
-0.38998079 0.6291008 -1.196084 0 0 0 2.2440864e-38
-0.40433967 0.59422541 -1.2716643 0 0 0 2.2440864e-38
-0.40198243 0.59940386 -1.3577882 0 0 0 2.2440864e-38
-0.12317419 0.65158892 -0.075784557 0 0 0 2.2440864e-38
-0.14558387 0.60455132 -0.16304733 0 0 0 2.2440864e-38
-0.15145493 0.59222794 -0.25042224 0 0 0 2.2440864e-38
-0.097906113 0.70462656 -0.34672961 0 0 0 2.2440864e-38
-0.35338008 0.67261314 -0.39614713 0 0 0 2.2440864e-38
-0.35631108 0.66547394 -0.48289114 0 0 0 2.2440864e-38
0.14166021 0.68037987 -0.7181682 0 0 0 2.2440864e-38
-0.14795876 0.59916401 -0.77756172 0 0 0 2.2440864e-38
-0.15987182 0.57396078 -0.860246 0 0 0 2.2440864e-38
-0.15212703 0.59021473 -0.95065391 0 0 0 2.2440864e-38
-0.16095328 0.57149029 -1.0334356 0 0 0 2.2440864e-38
-0.36766195 0.63626814 -1.1138753 0 0 0 2.2440864e-38
-0.37877524 0.60961533 -1.1927576 0 0 0 2.2440864e-38
-0.39097476 0.58018875 -1.2696362 0 0 0 2.2440864e-38
-0.40061712 0.55701637 -1.3470206 0 0 0 2.2440864e-38
-0.090176344 0.67775488 -0.16599989 0 0 0 2.2440864e-38
-0.067281008 0.72536182 -0.34890944 0 0 0 2.2440864e-38
-0.32964766 0.68200922 -0.39758477 0 0 0 2.2440864e-38
-0.33888137 0.6602149 -0.48308587 0 0 0 2.2440864e-38
0.14993334 0.65575361 -0.71568888 0 0 0 2.2440864e-38
-0.12898731 0.59665394 -0.77849072 0 0 0 2.2440864e-38
-0.14014578 0.57325459 -0.86162019 0 0 0 2.2440864e-38
-0.13660908 0.58060789 -0.95027679 0 0 0 2.2440864e-38
-0.14125848 0.57074261 -1.0350766 0 0 0 2.2440864e-38
-0.36417437 0.59874249 -1.1063461 0 0 0 2.2440864e-38
-0.37074637 0.5829649 -1.1875304 0 0 0 2.2440864e-38
-0.38606679 0.5465517 -1.2620305 0 0 0 2.2440864e-38
-0.39043558 0.53592634 -1.3427136 0 0 0 2.2440864e-38
-0.032804012 0.75967741 -0.35204297 0 0 0 2.2440864e-38
-0.31532586 0.67585325 -0.39758477 0 0 0 2.2440864e-38
-0.31594944 0.67419004 -0.48522773 0 0 0 2.2440864e-38
0.162287 0.64460516 -0.71513796 0 0 0 2.2440864e-38
-0.10803843 0.60409117 -0.78096801 0 0 0 2.2440864e-38
-0.12358785 0.57182264 -0.86265081 0 0 0 2.2440864e-38
-0.11318064 0.59328651 -0.95442486 0 0 0 2.2440864e-38
-0.11960077 0.57984686 -1.0387689 0 0 0 2.2440864e-38
-0.3539809 0.5837431 -1.1041317 0 0 0 2.2440864e-38
-0.36443985 0.55910397 -1.1827784 0 0 0 2.2440864e-38
-0.3652643 0.55655766 -1.2665938 0 0 0 2.2440864e-38
-0.37275219 0.5388031 -1.3454055 0 0 0 2.2440864e-38
-0.0079212189 0.76753283 -0.3532691 0 0 0 2.2440864e-38
-0.29943848 0.66678667 -0.39742503 0 0 0 2.2440864e-38
-0.31041038 0.64140987 -0.48250172 0 0 0 2.2440864e-38
0.17600965 0.6303978 -0.71431148 0 0 0 2.2440864e-38
-0.084670544 0.610291 -0.7834453 0 0 0 2.2440864e-38
-0.096026897 0.58688784 -0.86711693 0 0 0 2.2440864e-38
-0.085576296 0.60824203 -0.95932704 0 0 0 2.2440864e-38
-0.10068822 0.57716608 -1.0399996 0 0 0 2.2440864e-38
-0.34231365 0.56592083 -1.1014743 0 0 0 2.2440864e-38
-0.35129094 0.54492378 -1.1808776 0 0 0 2.2440864e-38
-0.35288596 0.54063654 -1.2640586 0 0 0 2.2440864e-38
-0.35811079 0.5282445 -1.3443288 0 0 0 2.2440864e-38
-0.24062037 0.76203775 -0.22636838 0 0 0 2.2440864e-38
-0.24969983 0.74117374 -0.31477505 0 0 0 2.2440864e-38
0.015494108 0.77826071 -0.35463151 0 0 0 2.2440864e-38
-0.28034902 0.67148542 -0.39838347 0 0 0 2.2440864e-38
-0.29381204 0.64065933 -0.48308587 0 0 0 2.2440864e-38
0.17586565 0.59660721 -0.71017933 0 0 0 2.2440864e-38
-0.059211969 0.6264019 -0.78747094 0 0 0 2.2440864e-38
-0.065443754 0.61357069 -0.87364441 0 0 0 2.2440864e-38
-0.054977655 0.63478708 -0.96649182 0 0 0 2.2440864e-38
-0.082366943 0.57906866 -1.042051 0 0 0 2.2440864e-38
-0.33228421 0.550879 -1.0992599 0 0 0 2.2440864e-38
-0.3373996 0.538836 -1.1808776 0 0 0 2.2440864e-38
-0.3397876 0.53278351 -1.2635516 0 0 0 2.2440864e-38
-0.33728755 0.53804493 -1.3491741 0 0 0 2.2440864e-38
-0.23903036 0.71983051 -0.22467375 0 0 0 2.2440864e-38
-0.2360177 0.72639656 -0.3142772 0 0 0 2.2440864e-38
-0.26449013 0.6622963 -0.39822373 0 0 0 2.2440864e-38
-0.27887297 0.62970352 -0.48269644 0 0 0 2.2440864e-38
0.17402053 0.55464315 -0.70494527 0 0 0 2.2440864e-38
-0.0066065788 0.69074583 -0.80016708 0 0 0 2.2440864e-38
-0.026158333 0.6512742 -0.88257664 0 0 0 2.2440864e-38
-0.021813393 0.66000128 -0.97365665 0 0 0 2.2440864e-38
-0.028523922 0.64632511 -1.0596919 0 0 0 2.2440864e-38
-0.31288946 0.55083227 -1.1010314 0 0 0 2.2440864e-38
-0.31332672 0.5494318 -1.1856296 0 0 0 2.2440864e-38
-0.31891227 0.53624201 -1.2665938 0 0 0 2.2440864e-38
-0.30702329 0.56256866 -1.3588649 0 0 0 2.2440864e-38
-0.24344635 0.66491365 -0.22235475 0 0 0 2.2440864e-38
-0.21179605 0.7352581 -0.31539738 0 0 0 2.2440864e-38
-0.24459219 0.66214705 -0.39886266 0 0 0 2.2440864e-38
-0.26317286 0.62051535 -0.48250172 0 0 0 2.2440864e-38
0.19025731 0.54561138 -0.70494527 0 0 0 2.2440864e-38
-0.29985785 0.53646803 -1.0992599 0 0 0 2.2440864e-38
-0.29790139 0.54041386 -1.1851544 0 0 0 2.2440864e-38
-0.2995702 0.53607702 -1.268622 0 0 0 2.2440864e-38
-0.25998569 0.6238308 -1.3798617 0 0 0 2.2440864e-38
-0.22835517 0.66030693 -0.22244395 0 0 0 2.2440864e-38
-0.20306635 0.71600056 -0.31452611 0 0 0 2.2440864e-38
-0.22211647 0.67388773 -0.40046003 0 0 0 2.2440864e-38
-0.24412203 0.62503195 -0.48367 0 0 0 2.2440864e-38
0.20803428 0.54472828 -0.70604718 0 0 0 2.2440864e-38
-0.2747345 0.55509424 -1.1054603 0 0 0 2.2440864e-38
-0.2720077 0.56070662 -1.1922824 0 0 0 2.2440864e-38
-0.22426915 0.66553688 -1.3076644 0 0 0 2.2440864e-38
-0.1854682 0.75081348 -1.4207784 0 0 0 2.2440864e-38
-0.22251987 0.62912321 -0.22128446 0 0 0 2.2440864e-38
-0.19204116 0.69564009 -0.31365487 0 0 0 2.2440864e-38
-0.20875311 0.6590538 -0.3998211 0 0 0 2.2440864e-38
-0.22927856 0.61391163 -0.48328057 0 0 0 2.2440864e-38
0.21738935 0.52351236 -0.70411885 0 0 0 2.2440864e-38
-0.073602438 0.44194412 -0.93179917 0 0 0 2.2440864e-38
-0.25119662 0.56367207 -1.1094464 0 0 0 2.2440864e-38
-0.18871403 0.69996262 -1.2317243 0 0 0 2.2440864e-38
-0.17705798 0.72482634 -1.326932 0 0 0 2.2440864e-38
-0.17251444 0.73433924 -1.4180865 0 0 0 2.2440864e-38
-0.20935464 0.6142869 -0.2209277 0 0 0 2.2440864e-38
-0.17194104 0.69519997 -0.31415272 0 0 0 2.2440864e-38
-0.18879128 0.65866566 -0.40046003 0 0 0 2.2440864e-38
-0.20281744 0.62804747 -0.48561716 0 0 0 2.2440864e-38
0.21087575 0.47478151 -0.69778287 0 0 0 2.2440864e-38
-0.06767869 0.41461802 -0.92765117 0 0 0 2.2440864e-38
-0.2275691 0.57213688 -1.1134324 0 0 0 2.2440864e-38
-0.16542959 0.70637083 -1.2355258 0 0 0 2.2440864e-38
-0.16992474 0.69600153 -1.3208475 0 0 0 2.2440864e-38
-0.16207528 0.71258593 -1.4137795 0 0 0 2.2440864e-38
-0.19795728 0.59579229 -0.22039254 0 0 0 2.2440864e-38
-0.15940022 0.67838717 -0.31353039 0 0 0 2.2440864e-38
-0.16543818 0.66542101 -0.40173793 0 0 0 2.2440864e-38
-0.1837883 0.62580967 -0.48620129 0 0 0 2.2440864e-38
0.23375273 0.47762394 -0.6997112 0 0 0 2.2440864e-38
-0.045607805 0.4186697 -0.93029082 0 0 0 2.2440864e-38
-0.15937257 0.67595291 -1.1413347 0 0 0 2.2440864e-38
-0.15191674 0.69153833 -1.2336251 0 0 0 2.2440864e-38
-0.14826417 0.69875097 -1.3238897 0 0 0 2.2440864e-38
-0.14688468 0.70129299 -1.4127027 0 0 0 2.2440864e-38
-0.17286849 0.61273479 -0.22155203 0 0 0 2.2440864e-38
-0.14593887 0.66988945 -0.31340593 0 0 0 2.2440864e-38
-0.15455842 0.65153074 -0.401099 0 0 0 2.2440864e-38
-0.16372204 0.63180828 -0.4875643 0 0 0 2.2440864e-38
-0.15004611 0.65867043 -1.1386772 0 0 0 2.2440864e-38
-0.14417434 0.67075729 -1.2298235 0 0 0 2.2440864e-38
-0.13882709 0.68151903 -1.3208475 0 0 0 2.2440864e-38
-0.13905668 0.68061638 -1.4083956 0 0 0 2.2440864e-38
-0.15299368 0.61219645 -0.22190881 0 0 0 2.2440864e-38
-0.11816311 0.68547869 -0.31502399 0 0 0 2.2440864e-38
-0.12174058 0.67793083 -0.40413398 0 0 0 2.2440864e-38
-0.14123201 0.63660431 -0.4889273 0 0 0 2.2440864e-38
0.0054268837 0.4446125 -0.85303146 0 0 0 2.2440864e-38
-0.13426161 0.64906359 -1.1382344 0 0 0 2.2440864e-38
-0.12834239 0.66113567 -1.2293482 0 0 0 2.2440864e-38
-0.12295222 0.67188501 -1.3203404 0 0 0 2.2440864e-38
-0.11657715 0.68491316 -1.4121643 0 0 0 2.2440864e-38
-0.13372374 0.61630249 -0.22244395 0 0 0 2.2440864e-38
-0.078873873 0.73088932 -0.3186335 0 0 0 2.2440864e-38
-0.10399461 0.67831707 -0.40477294 0 0 0 2.2440864e-38
-0.12276268 0.63883638 -0.48990086 0 0 0 2.2440864e-38
0.036608934 0.47044086 -0.85955888 0 0 0 2.2440864e-38
-0.11836171 0.64581299 -1.1391202 0 0 0 2.2440864e-38
-0.11492515 0.65259457 -1.228873 0 0 0 2.2440864e-38
-0.11367106 0.6546073 -1.3172982 0 0 0 2.2440864e-38
-0.11055756 0.66071081 -1.4067806 0 0 0 2.2440864e-38
-0.068248034 0.7098074 -0.40828714 0 0 0 2.2440864e-38
-0.089784384 0.66495562 -0.49360043 0 0 0 2.2440864e-38
-0.11280894 0.61501789 -1.1333625 0 0 0 2.2440864e-38
-0.09748292 0.64637089 -1.2293482 0 0 0 2.2440864e-38
-0.092019796 0.65708303 -1.3203404 0 0 0 2.2440864e-38
-0.067970991 0.70649481 -1.4234703 0 0 0 2.2440864e-38
-0.29396546 0.701581 -0.13435383 0 0 0 2.2440864e-38
-0.052313805 0.69987059 -0.4081274 0 0 0 2.2440864e-38
-0.079241037 0.64436293 -0.49223742 0 0 0 2.2440864e-38
0.11085057 0.53170443 -0.78654194 0 0 0 2.2440864e-38
-0.078412294 0.64385796 -1.1426634 0 0 0 2.2440864e-38
-0.071548939 0.65754509 -1.2345754 0 0 0 2.2440864e-38
-0.0711689 0.657722 -1.3228756 0 0 0 2.2440864e-38
-0.2964164 0.65685034 -0.13322437 0 0 0 2.2440864e-38
-0.030032396 0.70895004 -0.40956503 0 0 0 2.2440864e-38
-0.054514885 0.65886307 -0.49457401 0 0 0 2.2440864e-38
0.11238003 0.50162506 -0.7825163 0 0 0 2.2440864e-38
-0.071088552 0.62290716 -1.1391202 0 0 0 2.2440864e-38
-0.053879976 0.65755367 -1.2364763 0 0 0 2.2440864e-38
-0.055218935 0.65422678 -1.3238897 0 0 0 2.2440864e-38
-0.27252698 0.66599941 -0.13370842 0 0 0 2.2440864e-38
-0.0043799877 0.71853018 -0.41116241 0 0 0 2.2440864e-38
-0.023758411 0.67920685 -0.49768943 0 0 0 2.2440864e-38
0.1331923 0.50147152 -0.78406465 0 0 0 2.2440864e-38
-0.047671795 0.62875366 -1.1426634 0 0 0 2.2440864e-38
-0.03208828 0.65980053 -1.2393274 0 0 0 2.2440864e-38
-0.24055624 0.69292593 -0.045974959 0 0 0 2.2440864e-38
-0.25995421 0.64947557 -0.1334395 0 0 0 2.2440864e-38
0.022264242 0.72976685 -0.41291949 0 0 0 2.2440864e-38
0.01785779 0.72075081 -0.5031414 0 0 0 2.2440864e-38
-0.025054932 0.63274431 -1.1457635 0 0 0 2.2440864e-38
-0.019809961 0.64283609 -1.2369515 0 0 0 2.2440864e-38
-0.24508405 0.64454651 -0.045552664 0 0 0 2.2440864e-38
-0.24983859 0.63398552 -0.13317057 0 0 0 2.2440864e-38
0.044807434 0.73852825 -0.41435713 0 0 0 2.2440864e-38
0.060064554 0.76860905 -0.50917757 0 0 0 2.2440864e-38
0.010180473 0.66742945 -1.1563929 0 0 0 2.2440864e-38
-0.23679185 0.61884451 -0.045369059 0 0 0 2.2440864e-38
-0.23496318 0.62286711 -0.133063 0 0 0 2.2440864e-38
0.23610544 -0.21415043 -0.40833575 0 0 0 2.2440864e-38
-0.20947027 0.63494635 -0.045607746 0 0 0 2.2440864e-38
-0.21597123 0.62078476 -0.13322437 0 0 0 2.2440864e-38
0.23025107 -0.25124145 -0.40522707 0 0 0 2.2440864e-38
-0.195297 0.62841272 -0.045607746 0 0 0 2.2440864e-38
-0.20352197 0.61064291 -0.1331168 0 0 0 2.2440864e-38
0.23366642 -0.27058911 -0.403947 0 0 0 2.2440864e-38
-0.17709398 0.6243577 -0.045644466 0 0 0 2.2440864e-38
-0.18199873 0.61386251 -0.1334395 0 0 0 2.2440864e-38
0.24687815 -0.27983379 -0.403947 0 0 0 2.2440864e-38
-0.11366487 0.71609163 -0.046654299 0 0 0 2.2440864e-38
-0.16213012 0.61336756 -0.13365464 0 0 0 2.2440864e-38
0.24878311 -0.30504966 -0.32464361 0 0 0 2.2440864e-38
0.25890517 -0.29075241 -0.40376416 0 0 0 2.2440864e-38
-0.14373112 0.61571264 -0.13392356 0 0 0 2.2440864e-38
0.24958301 -0.32763624 -0.32331309 0 0 0 2.2440864e-38
0.2886622 -0.27280283 -0.40668997 0 0 0 2.2440864e-38
0.25793147 -0.34341884 -0.32272175 0 0 0 2.2440864e-38
0.26970673 -0.35436797 -0.32257393 0 0 0 2.2440864e-38
0.26613784 -0.38261247 -0.24427164 0 0 0 2.2440864e-38
0.23966146 -0.41882277 -0.31739974 0 0 0 2.2440864e-38
0.19384861 -0.50786233 -0.23615554 0 0 0 2.2440864e-38
0.19921088 -0.50043583 -0.31074721 0 0 0 2.2440864e-38
0.19906473 -0.52659082 -0.23547921 0 0 0 2.2440864e-38
0.21632552 -0.50313926 -0.31133854 0 0 0 2.2440864e-38
0.25651455 -0.44882083 -0.39187798 0 0 0 2.2440864e-38
0.19646692 -0.55201817 -0.23423925 0 0 0 2.2440864e-38
0.21024275 -0.53339958 -0.30926886 0 0 0 2.2440864e-38
0.22802401 -0.50952411 -0.38584346 0 0 0 2.2440864e-38
0.22034073 -0.54554367 -0.16146363 0 0 0 2.2440864e-38
0.20145583 -0.57070708 -0.2335629 0 0 0 2.2440864e-38
0.2021389 -0.5696764 -0.30675566 0 0 0 2.2440864e-38
0.23318744 -0.5283041 -0.38474628 0 0 0 2.2440864e-38
0.24321938 -0.18904519 -0.4637163 0 0 0 2.2440864e-38
0.2433939 -0.54039168 -0.16216026 0 0 0 2.2440864e-38
0.21356773 -0.57983184 -0.2335629 0 0 0 2.2440864e-38
0.22748804 -0.56130409 -0.30838186 0 0 0 2.2440864e-38
0.25146103 -0.52960277 -0.38566059 0 0 0 2.2440864e-38
0.24317765 -0.21797776 -0.46124095 0 0 0 2.2440864e-38
0.22482157 -0.58650732 -0.16030258 0 0 0 2.2440864e-38
0.21787548 -0.59563255 -0.23299929 0 0 0 2.2440864e-38
0.23065305 -0.57872677 -0.30749485 0 0 0 2.2440864e-38
0.24752903 -0.23621416 -0.38143739 0 0 0 2.2440864e-38
0.24629211 -0.55818033 -0.38328335 0 0 0 2.2440864e-38
0.24332452 -0.24227023 -0.45917815 0 0 0 2.2440864e-38
0.24782205 -0.58144546 -0.16099922 0 0 0 2.2440864e-38
0.22989607 -0.60481739 -0.23299929 0 0 0 2.2440864e-38
0.23909402 -0.5927062 -0.30705133 0 0 0 2.2440864e-38
0.25287008 -0.2569387 -0.38023791 0 0 0 2.2440864e-38
0.26935816 -0.5532465 -0.38492912 0 0 0 2.2440864e-38
0.26234221 -0.24340081 -0.46020955 0 0 0 2.2440864e-38
0.25378394 -0.59864664 -0.1606122 0 0 0 2.2440864e-38
0.24066162 -0.61562586 -0.23288657 0 0 0 2.2440864e-38
0.25600338 -0.59565616 -0.30764267 0 0 0 2.2440864e-38
0.25235152 -0.28579569 -0.37818164 0 0 0 2.2440864e-38
0.27544451 -0.57049966 -0.38401482 0 0 0 2.2440864e-38
0.2699213 -0.26087976 -0.45917815 0 0 0 2.2440864e-38
0.25058198 -0.62398124 -0.15976076 0 0 0 2.2440864e-38
0.24109602 -0.63617635 -0.23198478 0 0 0 2.2440864e-38
0.27365613 -0.59419966 -0.30852968 0 0 0 2.2440864e-38
0.2693975 -0.28565097 -0.37903842 0 0 0 2.2440864e-38
0.26381826 -0.60684729 -0.38072327 0 0 0 2.2440864e-38
0.2950964 -0.24944878 -0.4616535 0 0 0 2.2440864e-38
0.26866245 -0.62542105 -0.16014779 0 0 0 2.2440864e-38
0.26159024 -0.63444448 -0.23277384 0 0 0 2.2440864e-38
0.28814197 -0.60044909 -0.30882534 0 0 0 2.2440864e-38
0.27791595 -0.30150914 -0.378353 0 0 0 2.2440864e-38
0.28808284 -0.6005249 -0.38255191 0 0 0 2.2440864e-38
0.30722785 -0.26053691 -0.46144724 0 0 0 2.2440864e-38
0.27763629 -0.6350193 -0.16007037 0 0 0 2.2440864e-38
0.27424669 -0.63931608 -0.23299929 0 0 0 2.2440864e-38
0.29719663 -0.61010575 -0.30867752 0 0 0 2.2440864e-38
0.29837227 -0.60861516 -0.38255191 0 0 0 2.2440864e-38
0.30928493 -0.28160334 -0.45979699 0 0 0 2.2440864e-38
0.32508016 -0.25967073 -0.54153013 0 0 0 2.2440864e-38
0.27635241 -0.32733274 -0.60880387 0 0 0 2.2440864e-38
0.3106513 -0.61782598 -0.16138624 0 0 0 2.2440864e-38
0.29356146 -0.63932776 -0.23367563 0 0 0 2.2440864e-38
0.32653761 -0.5977211 -0.31074721 0 0 0 2.2440864e-38
0.30910563 -0.61965418 -0.38236904 0 0 0 2.2440864e-38
0.32362437 -0.28951526 -0.46000329 0 0 0 2.2440864e-38
0.27302623 -0.35923433 -0.52803403 0 0 0 2.2440864e-38
0.21256328 -0.44254613 -0.59062237 0 0 0 2.2440864e-38
0.32134056 -0.62891054 -0.16130883 0 0 0 2.2440864e-38
0.32039928 -0.63008595 -0.23502831 0 0 0 2.2440864e-38
0.34852338 -0.59484911 -0.31192988 0 0 0 2.2440864e-38
0.32975173 -0.61829066 -0.38364908 0 0 0 2.2440864e-38
0.32619691 -0.31354117 -0.45814675 0 0 0 2.2440864e-38
0.24606323 -0.42311025 -0.51984 0 0 0 2.2440864e-38
0.17135262 -0.52526402 -0.57795048 0 0 0 2.2440864e-38
0.31817937 -0.65713859 -0.16037999 0 0 0 2.2440864e-38
0.32351565 -0.65052462 -0.23423925 0 0 0 2.2440864e-38
0.42191386 -0.52845025 -0.31917372 0 0 0 2.2440864e-38
0.33293414 -0.63873553 -0.38236904 0 0 0 2.2440864e-38
0.32626796 -0.3407402 -0.45587769 0 0 0 2.2440864e-38
0.24929237 -0.44518542 -0.51791197 0 0 0 2.2440864e-38
0.17422938 -0.54703569 -0.57574666 0 0 0 2.2440864e-38
0.35252929 -0.63547444 -0.2359301 0 0 0 2.2440864e-38
0.43368649 -0.53541303 -0.31932157 0 0 0 2.2440864e-38
0.22776079 -0.4967072 -0.36224559 0 0 0 2.2440864e-38
0.35565805 -0.63150573 -0.38419768 0 0 0 2.2440864e-38
0.30300117 -0.39528489 -0.44989559 0 0 0 2.2440864e-38
0.21511912 -0.51374793 -0.50875396 0 0 0 2.2440864e-38
0.17406535 -0.56908727 -0.57326734 0 0 0 2.2440864e-38
0.22821307 -0.52188873 -0.36053202 0 0 0 2.2440864e-38
0.37385154 -0.6334877 -0.38511199 0 0 0 2.2440864e-38
0.30265331 -0.42230964 -0.4476265 0 0 0 2.2440864e-38
0.19534326 -0.5658586 -0.50224692 0 0 0 2.2440864e-38
0.17669487 -0.59080458 -0.57106352 0 0 0 2.2440864e-38
0.23755193 -0.53138351 -0.36036068 0 0 0 2.2440864e-38
0.42581344 -0.59110951 -0.39114651 0 0 0 2.2440864e-38
0.25250149 -0.51151586 -0.43710625 0 0 0 2.2440864e-38
0.21051717 -0.567312 -0.5032109 0 0 0 2.2440864e-38
0.18701553 -0.59854507 -0.57106352 0 0 0 2.2440864e-38
0.24138021 -0.55175567 -0.35916117 0 0 0 2.2440864e-38
0.2443974 -0.54777622 -0.4335995 0 0 0 2.2440864e-38
0.19385195 -0.61443996 -0.49742687 0 0 0 2.2440864e-38
0.18945074 -0.62024474 -0.5688597 0 0 0 2.2440864e-38
0.26323915 -0.54835963 -0.36053202 0 0 0 2.2440864e-38
0.25417781 -0.56022 -0.43318695 0 0 0 2.2440864e-38
0.20700908 -0.62195873 -0.49766788 0 0 0 2.2440864e-38
0.19777322 -0.63404727 -0.56803328 0 0 0 2.2440864e-38
0.26397514 -0.56900907 -0.35916117 0 0 0 2.2440864e-38
0.26338148 -0.56978106 -0.43298066 0 0 0 2.2440864e-38
0.20149779 -0.65025473 -0.49453485 0 0 0 2.2440864e-38
0.1910522 -0.66383839 -0.56417662 0 0 0 2.2440864e-38
0.23102188 -0.32448268 -0.29727468 0 0 0 2.2440864e-38
0.27853394 -0.57521248 -0.3595039 0 0 0 2.2440864e-38
0.26574874 -0.59171295 -0.43133041 0 0 0 2.2440864e-38
0.21088624 -0.66251802 -0.49405286 0 0 0 2.2440864e-38
0.2003963 -0.67605615 -0.56362563 0 0 0 2.2440864e-38
0.15673018 -0.42997074 -0.81112915 0 0 0 2.2440864e-38
0.12705374 -0.47207713 -0.87466639 0 0 0 2.2440864e-38
0.22088242 -0.36622095 -0.29454988 0 0 0 2.2440864e-38
0.29676008 -0.57676649 -0.36036068 0 0 0 2.2440864e-38
0.27288651 -0.60734534 -0.43050531 0 0 0 2.2440864e-38
0.21166539 -0.68576121 -0.49188384 0 0 0 2.2440864e-38
0.21577907 -0.68049192 -0.56445211 0 0 0 2.2440864e-38
0.15416241 -0.46026206 -0.73210233 0 0 0 2.2440864e-38
0.16593933 -0.44373155 -0.80999786 0 0 0 2.2440864e-38
0.12589788 -0.5000608 -0.86974329 0 0 0 2.2440864e-38
0.23723459 -0.3705554 -0.29495859 0 0 0 2.2440864e-38
0.31131315 -0.58310819 -0.36070338 0 0 0 2.2440864e-38
0.2491951 -0.66207433 -0.4245232 0 0 0 2.2440864e-38
0.2159903 -0.70428538 -0.49043784 0 0 0 2.2440864e-38
0.21279144 -0.70835185 -0.56114638 0 0 0 2.2440864e-38
0.18046856 -0.45000839 -0.73622489 0 0 0 2.2440864e-38
0.14300609 -0.50218725 -0.79830796 0 0 0 2.2440864e-38
0.12685275 -0.5248096 -0.8656407 0 0 0 2.2440864e-38
0.24240327 -0.38657355 -0.2942774 0 0 0 2.2440864e-38
0.31794667 -0.59595847 -0.36018932 0 0 0 2.2440864e-38
0.26052642 -0.66848278 -0.42472947 0 0 0 2.2440864e-38
0.22348952 -0.71526217 -0.48995581 0 0 0 2.2440864e-38
0.22766137 -0.70999265 -0.56224829 0 0 0 2.2440864e-38
0.19126868 -0.45758414 -0.66174805 0 0 0 2.2440864e-38
0.14968348 -0.51524878 -0.72385716 0 0 0 2.2440864e-38
0.1432507 -0.52414942 -0.79491407 0 0 0 2.2440864e-38
0.11788797 -0.55936408 -0.85866636 0 0 0 2.2440864e-38
0.22464919 -0.43778658 -0.29073516 0 0 0 2.2440864e-38
0.33120799 -0.60395217 -0.36036068 0 0 0 2.2440864e-38
0.25863338 -0.69492984 -0.42246041 0 0 0 2.2440864e-38
0.23878574 -0.71981025 -0.49067882 0 0 0 2.2440864e-38
0.22937989 -0.73160124 -0.56004447 0 0 0 2.2440864e-38
0.17936754 -0.50021315 -0.65524518 0 0 0 2.2440864e-38
0.16083908 -0.52577662 -0.7235136 0 0 0 2.2440864e-38
0.14397025 -0.5489378 -0.79114312 0 0 0 2.2440864e-38
0.13234687 -0.56501794 -0.85948688 0 0 0 2.2440864e-38
0.19557953 -0.50006723 -0.21184914 0 0 0 2.2440864e-38
0.1941607 -0.50200295 -0.28596678 0 0 0 2.2440864e-38
0.34023905 -0.61373186 -0.36018932 0 0 0 2.2440864e-38
0.26613569 -0.70602965 -0.42204785 0 0 0 2.2440864e-38
0.2362709 -0.74322724 -0.48826882 0 0 0 2.2440864e-38
0.24421883 -0.73332787 -0.56114638 0 0 0 2.2440864e-38
0.17244911 -0.53186536 -0.65060025 0 0 0 2.2440864e-38
0.16087937 -0.54776859 -0.72042167 0 0 0 2.2440864e-38
0.14861584 -0.5644958 -0.78925771 0 0 0 2.2440864e-38
0.12307286 -0.59945607 -0.85251254 0 0 0 2.2440864e-38
0.19726896 -0.52363038 -0.21094035 0 0 0 2.2440864e-38
0.19941092 -0.52073097 -0.28514934 0 0 0 2.2440864e-38
0.36723065 -0.60477424 -0.36224559 0 0 0 2.2440864e-38
0.28275561 -0.70920396 -0.42287296 0 0 0 2.2440864e-38
0.26648021 -0.72932386 -0.49188384 0 0 0 2.2440864e-38
0.25947189 -0.73798776 -0.5619728 0 0 0 2.2440864e-38
0.17296267 -0.55677629 -0.64750361 0 0 0 2.2440864e-38
0.17424655 -0.55516005 -0.72076523 0 0 0 2.2440864e-38
0.15258121 -0.58448505 -0.78661799 0 0 0 2.2440864e-38
0.13740635 -0.6051445 -0.85333306 0 0 0 2.2440864e-38
0.20001173 -0.54555821 -0.21013252 0 0 0 2.2440864e-38
0.17834496 -0.57466459 -0.28133464 0 0 0 2.2440864e-38
0.38047552 -0.61296153 -0.36241692 0 0 0 2.2440864e-38
0.29561639 -0.71708345 -0.42307925 0 0 0 2.2440864e-38
0.26546717 -0.75407624 -0.48947382 0 0 0 2.2440864e-38
0.26095867 -0.75960827 -0.55976897 0 0 0 2.2440864e-38
0.16742754 -0.58957028 -0.64285868 0 0 0 2.2440864e-38
0.18759227 -0.56260467 -0.72110873 0 0 0 2.2440864e-38
0.16464281 -0.59343052 -0.78661799 0 0 0 2.2440864e-38
0.14471674 -0.6203146 -0.85169202 0 0 0 2.2440864e-38
0.23029327 -0.52692199 -0.13752402 0 0 0 2.2440864e-38
0.20927668 -0.55497074 -0.21003155 0 0 0 2.2440864e-38
0.21144962 -0.55207062 -0.28392318 0 0 0 2.2440864e-38
0.41852736 -0.58744764 -0.36618677 0 0 0 2.2440864e-38
0.25501037 -0.16499877 -0.44005403 0 0 0 2.2440864e-38
0.31058621 -0.71904469 -0.42390436 0 0 0 2.2440864e-38
0.2815702 -0.75441957 -0.49067882 0 0 0 2.2440864e-38
0.26949239 -0.7691443 -0.55949348 0 0 0 2.2440864e-38
0.16590333 -0.61309385 -0.63976204 0 0 0 2.2440864e-38
0.18500471 -0.58772326 -0.71732974 0 0 0 2.2440864e-38
0.15846562 -0.62313795 -0.78133869 0 0 0 2.2440864e-38
0.1572926 -0.62482166 -0.85251254 0 0 0 2.2440864e-38
0.23654318 -0.54412913 -0.13719596 0 0 0 2.2440864e-38
0.21663189 -0.57050061 -0.20962764 0 0 0 2.2440864e-38
0.21882057 -0.56760192 -0.28337824 0 0 0 2.2440864e-38
0.23475075 -0.22351098 -0.4342126 0 0 0 2.2440864e-38
0.34876585 -0.69636536 -0.42823622 0 0 0 2.2440864e-38
0.28921413 -0.76842785 -0.48995581 0 0 0 2.2440864e-38
0.27835274 -0.78157115 -0.55894256 0 0 0 2.2440864e-38
0.18381357 -0.61420369 -0.64131033 0 0 0 2.2440864e-38
0.19705439 -0.59678745 -0.71732974 0 0 0 2.2440864e-38
0.17512012 -0.62583494 -0.78284711 0 0 0 2.2440864e-38
0.13027906 -0.68533397 -0.83897406 0 0 0 2.2440864e-38
0.24149036 -0.56292772 -0.13680229 0 0 0 2.2440864e-38
0.22632551 -0.58286023 -0.20942569 0 0 0 2.2440864e-38
0.22973561 -0.5783782 -0.28324199 0 0 0 2.2440864e-38
0.25607729 -0.22131157 -0.4355756 0 0 0 2.2440864e-38
0.36296201 -0.70297146 -0.4286488 0 0 0 2.2440864e-38
0.30441189 -0.7732954 -0.49067882 0 0 0 2.2440864e-38
0.32644844 -0.7468276 -0.56693137 0 0 0 2.2440864e-38
0.18978405 -0.63112569 -0.63976204 0 0 0 2.2440864e-38
0.19117475 -0.62941551 -0.7121765 0 0 0 2.2440864e-38
0.17156863 -0.65518308 -0.77794486 0 0 0 2.2440864e-38
0.1253767 -0.7160058 -0.8332305 0 0 0 2.2440864e-38
0.25432897 -0.56769776 -0.13693351 0 0 0 2.2440864e-38
0.23909974 -0.58758497 -0.20962764 0 0 0 2.2440864e-38
0.23645544 -0.59103799 -0.28283328 0 0 0 2.2440864e-38
0.2440846 -0.262779 -0.35349742 0 0 0 2.2440864e-38
0.25502133 -0.24725437 -0.43343374 0 0 0 2.2440864e-38
0.41253662 -0.66402769 -0.43504345 0 0 0 2.2440864e-38
0.32818508 -0.76469636 -0.49332985 0 0 0 2.2440864e-38
0.37317371 -0.71100497 -0.57492018 0 0 0 2.2440864e-38
0.21319294 -0.62165141 -0.64316833 0 0 0 2.2440864e-38
0.21335387 -0.62155914 -0.71561199 0 0 0 2.2440864e-38
0.18407559 -0.65978861 -0.77869904 0 0 0 2.2440864e-38
0.12221193 -0.74067903 -0.82871765 0 0 0 2.2440864e-38
0.23592353 -0.61658072 -0.13529319 0 0 0 2.2440864e-38
0.22796535 -0.62689424 -0.20770909 0 0 0 2.2440864e-38
0.25458741 -0.59239221 -0.28351447 0 0 0 2.2440864e-38
0.2424078 -0.29325557 -0.35142085 0 0 0 2.2440864e-38
0.27633834 -0.24518347 -0.43479675 0 0 0 2.2440864e-38
0.35367322 -0.75759578 -0.49598086 0 0 0 2.2440864e-38
0.39882636 -0.70410752 -0.57795048 0 0 0 2.2440864e-38
0.18649077 -0.68087626 -0.63325912 0 0 0 2.2440864e-38
0.22287202 -0.63384676 -0.71492487 0 0 0 2.2440864e-38
0.15266299 -0.72482777 -0.76512367 0 0 0 2.2440864e-38
0.13728905 -0.74486303 -0.82994843 0 0 0 2.2440864e-38
0.26504374 -0.60373807 -0.13621177 0 0 0 2.2440864e-38
0.25458336 -0.61719275 -0.20892081 0 0 0 2.2440864e-38
0.27029371 -0.59698558 -0.28392318 0 0 0 2.2440864e-38
0.25322938 -0.30578423 -0.35110137 0 0 0 2.2440864e-38
0.29424953 -0.24809098 -0.4355756 0 0 0 2.2440864e-38
0.41526341 -0.70829248 -0.50537992 0 0 0 2.2440864e-38
0.17272949 -0.72270226 -0.62675625 0 0 0 2.2440864e-38
0.20088887 -0.68660092 -0.70530552 0 0 0 2.2440864e-38
0.15335965 -0.74772739 -0.76172984 0 0 0 2.2440864e-38
0.14876318 -0.75375152 -0.82994843 0 0 0 2.2440864e-38
0.14024615 -0.46657658 -0.95044786 0 0 0 2.2440864e-38
0.035955429 -0.61413813 -1.0495794 0 0 0 2.2440864e-38
0.26177287 -0.62907267 -0.13549003 0 0 0 2.2440864e-38
0.26605177 -0.62360477 -0.20902179 0 0 0 2.2440864e-38
0.22125411 -0.37425137 -0.26859808 0 0 0 2.2440864e-38
0.28551316 -0.59873462 -0.28446814 0 0 0 2.2440864e-38
0.26212811 -0.31701159 -0.35078192 0 0 0 2.2440864e-38
0.32184124 -0.23352432 -0.43830159 0 0 0 2.2440864e-38
0.18872452 -0.72264957 -0.62830454 0 0 0 2.2440864e-38
0.18419385 -0.72855234 -0.69774747 0 0 0 2.2440864e-38
0.16439795 -0.75384712 -0.7621069 0 0 0 2.2440864e-38
0.17425561 -0.741364 -0.83528179 0 0 0 2.2440864e-38
0.032706499 -0.64032578 -1.0434948 0 0 0 2.2440864e-38
0.29347253 -0.61330295 -0.13653983 0 0 0 2.2440864e-38
0.27920604 -0.63139725 -0.20912276 0 0 0 2.2440864e-38
0.23408604 -0.38344979 -0.26859808 0 0 0 2.2440864e-38
0.29628658 -0.60973406 -0.28433192 0 0 0 2.2440864e-38
0.29030776 -0.30532408 -0.35285848 0 0 0 2.2440864e-38
0.32937455 -0.25117064 -0.43732804 0 0 0 2.2440864e-38
0.19171572 -0.74258757 -0.6261369 0 0 0 2.2440864e-38
0.17986774 -0.75772548 -0.69328129 0 0 0 2.2440864e-38
0.16975808 -0.77054644 -0.76022142 0 0 0 2.2440864e-38
0.18089414 -0.75653601 -0.83364075 0 0 0 2.2440864e-38
0.042743206 -0.65100408 -0.97321421 0 0 0 2.2440864e-38
0.037781239 -0.65825152 -1.0404526 0 0 0 2.2440864e-38
0.31786156 -0.60711288 -0.13719596 0 0 0 2.2440864e-38
0.29233742 -0.63924241 -0.20922373 0 0 0 2.2440864e-38
0.25157166 -0.38623166 -0.26909596 0 0 0 2.2440864e-38
0.30577254 -0.62233067 -0.28405944 0 0 0 2.2440864e-38
0.3356452 -0.27043438 -0.43615976 0 0 0 2.2440864e-38
0.21057248 -0.74239302 -0.62799489 0 0 0 2.2440864e-38
0.19864821 -0.75751376 -0.6953426 0 0 0 2.2440864e-38
0.1860249 -0.77340221 -0.76172984 0 0 0 2.2440864e-38
0.23859763 -0.70734477 -0.84923047 0 0 0 2.2440864e-38
0.062548399 -0.64853954 -0.97654063 0 0 0 2.2440864e-38
0.05298233 -0.66207814 -1.0419737 0 0 0 2.2440864e-38
0.33233762 -0.6135428 -0.13732718 0 0 0 2.2440864e-38
0.30544591 -0.6471405 -0.20932472 0 0 0 2.2440864e-38
0.23962569 -0.42938519 -0.26648217 0 0 0 2.2440864e-38
0.33265686 -0.61314368 -0.2856943 0 0 0 2.2440864e-38
0.3406353 -0.2913022 -0.43479675 0 0 0 2.2440864e-38
0.21341181 -0.7623477 -0.62582725 0 0 0 2.2440864e-38
0.20884418 -0.76816511 -0.69499904 0 0 0 2.2440864e-38
0.20844102 -0.76866865 -0.76512367 0 0 0 2.2440864e-38
0.25020838 -0.71660471 -0.84923047 0 0 0 2.2440864e-38
0.16638541 -0.53107452 -0.94203287 0 0 0 2.2440864e-38
0.065202713 -0.66970038 -0.97273898 0 0 0 2.2440864e-38
0.057908297 -0.68002796 -1.0389315 0 0 0 2.2440864e-38
0.28085065 -0.3754158 -1.213503 0 0 0 2.2440864e-38
0.32060122 -0.64906311 -0.20972863 0 0 0 2.2440864e-38
0.23152757 -0.46305084 -0.26449069 0 0 0 2.2440864e-38
0.36293483 -0.59651208 -0.28787413 0 0 0 2.2440864e-38
0.22245693 -0.4753809 -0.33864191 0 0 0 2.2440864e-38
0.3495369 -0.30276608 -0.43440732 0 0 0 2.2440864e-38
0.22691202 -0.76558685 -0.62675625 0 0 0 2.2440864e-38
0.21984363 -0.77447152 -0.6953426 0 0 0 2.2440864e-38
0.24284792 -0.74591827 -0.77266556 0 0 0 2.2440864e-38
0.26504588 -0.71847844 -0.8508715 0 0 0 2.2440864e-38
0.1607089 -0.56077409 -0.93583238 0 0 0 2.2440864e-38
0.067214966 -0.68804264 -0.96941257 0 0 0 2.2440864e-38
0.058774233 -0.69985938 -1.0348752 0 0 0 2.2440864e-38
0.27243495 -0.40985465 -1.2043506 0 0 0 2.2440864e-38
0.20114851 -0.53001475 -0.18614295 0 0 0 2.2440864e-38
0.34627151 -0.64156413 -0.21083936 0 0 0 2.2440864e-38
0.19648433 -0.53642893 -0.25951207 0 0 0 2.2440864e-38
0.20523715 -0.52462173 -0.33464849 0 0 0 2.2440864e-38
0.33417988 -0.35081172 -0.42973417 0 0 0 2.2440864e-38
0.23457384 -0.77940583 -0.62582725 0 0 0 2.2440864e-38
0.23741722 -0.77601337 -0.69706035 0 0 0 2.2440864e-38
0.29764223 -0.70181966 -0.78586382 0 0 0 2.2440864e-38
0.28278422 -0.7202363 -0.8529228 0 0 0 2.2440864e-38
0.098502159 -0.67000818 -0.90748727 0 0 0 2.2440864e-38
0.088156223 -0.68419147 -0.97321421 0 0 0 2.2440864e-38
0.090007782 -0.68204474 -1.0434948 0 0 0 2.2440864e-38
0.1703763 -0.57393956 -1.1505128 0 0 0 2.2440864e-38
0.20807528 -0.54263663 -0.18587539 0 0 0 2.2440864e-38
0.19861937 -0.55543065 -0.2586408 0 0 0 2.2440864e-38
0.21338105 -0.53564787 -0.33432901 0 0 0 2.2440864e-38
0.3119216 -0.40371633 -0.42428219 0 0 0 2.2440864e-38
0.2443018 -0.78732729 -0.62582725 0 0 0 2.2440864e-38
0.2546351 -0.77478886 -0.69912165 0 0 0 2.2440864e-38
0.31631184 -0.69929194 -0.78850347 0 0 0 2.2440864e-38
0.30260539 -0.71618247 -0.85620481 0 0 0 2.2440864e-38
0.10507417 -0.68219137 -0.90615857 0 0 0 2.2440864e-38
0.091210604 -0.70099378 -0.97036302 0 0 0 2.2440864e-38
0.14286876 -0.6321547 -1.0622555 0 0 0 2.2440864e-38
0.15424371 -0.61715794 -1.1381302 0 0 0 2.2440864e-38
0.22149086 -0.55018878 -0.18596457 0 0 0 2.2440864e-38
0.20358944 -0.57411766 -0.25789398 0 0 0 2.2440864e-38
0.22082877 -0.55119014 -0.33369008 0 0 0 2.2440864e-38
0.31985974 -0.41961074 -0.42350334 0 0 0 2.2440864e-38
0.25813079 -0.79355645 -0.6264466 0 0 0 2.2440864e-38
0.32609963 -0.71108699 -0.71561199 0 0 0 2.2440864e-38
0.33169651 -0.70428729 -0.78963476 0 0 0 2.2440864e-38
0.32289147 -0.71509743 -0.85907662 0 0 0 2.2440864e-38
0.10739851 -0.70343089 -0.90261543 0 0 0 2.2440864e-38
0.14021921 -0.66003442 -0.98556948 0 0 0 2.2440864e-38
0.15708232 -0.63797235 -1.0632695 0 0 0 2.2440864e-38
0.16734385 -0.62457013 -1.1386685 0 0 0 2.2440864e-38
0.23247123 -0.5609796 -0.18587539 0 0 0 2.2440864e-38
0.22051072 -0.57688594 -0.25839186 0 0 0 2.2440864e-38
0.23060441 -0.56356406 -0.3333706 0 0 0 2.2440864e-38
0.31569529 -0.45138168 -0.42077732 0 0 0 2.2440864e-38
0.30095625 -0.76486254 -0.63418812 0 0 0 2.2440864e-38
0.35907674 -0.69488454 -0.7214523 0 0 0 2.2440864e-38
0.3922143 -0.65492344 -0.80434144 0 0 0 2.2440864e-38
0.34322 -0.71411872 -0.86194843 0 0 0 2.2440864e-38
0.11902475 -0.71220994 -0.90261543 0 0 0 2.2440864e-38
0.15317774 -0.66738605 -0.98604465 0 0 0 2.2440864e-38
0.1595974 -0.65926743 -1.0592132 0 0 0 2.2440864e-38
0.16878486 -0.64738345 -1.1338232 0 0 0 2.2440864e-38
0.24288535 -0.56889534 -0.18587539 0 0 0 2.2440864e-38
0.22845411 -0.58793855 -0.25814292 0 0 0 2.2440864e-38
0.24101043 -0.57147408 -0.3333706 0 0 0 2.2440864e-38
0.23954391 -0.57351661 -0.40675792 0 0 0 2.2440864e-38
0.34870958 -0.72748184 -0.64347798 0 0 0 2.2440864e-38
0.37285686 -0.69865942 -0.72248292 0 0 0 2.2440864e-38
0.43001938 -0.63016534 -0.81263751 0 0 0 2.2440864e-38
0.35691524 -0.71787333 -0.86317921 0 0 0 2.2440864e-38
0.12423229 -0.72597098 -0.90084386 0 0 0 2.2440864e-38
0.16915011 -0.66732979 -0.98842067 0 0 0 2.2440864e-38
0.16500854 -0.67310596 -1.0571851 0 0 0 2.2440864e-38
0.17308521 -0.66275477 -1.1311313 0 0 0 2.2440864e-38
0.25135159 -0.58292484 -0.18560781 0 0 0 2.2440864e-38
0.23928642 -0.59874487 -0.25801846 0 0 0 2.2440864e-38
0.25433397 -0.57916284 -0.33353034 0 0 0 2.2440864e-38
0.25649691 -0.57646751 -0.40753677 0 0 0 2.2440864e-38
0.38567686 -0.70689774 -0.64967126 0 0 0 2.2440864e-38
0.44696784 -0.63411379 -0.81414586 0 0 0 2.2440864e-38
0.44029284 -0.64216757 -0.88656378 0 0 0 2.2440864e-38
0.15003991 -0.71625686 -0.90615857 0 0 0 2.2440864e-38
0.18564463 -0.67017484 -0.99032152 0 0 0 2.2440864e-38
0.18264174 -0.67442799 -1.0597203 0 0 0 2.2440864e-38
0.17898917 -0.6794095 -1.1284393 0 0 0 2.2440864e-38
0.24262428 -0.61908937 -0.18409155 0 0 0 2.2440864e-38
0.24274087 -0.61905622 -0.25714719 0 0 0 2.2440864e-38
0.26397347 -0.59163404 -0.33321086 0 0 0 2.2440864e-38
0.28199244 -0.56848168 -0.40967864 0 0 0 2.2440864e-38
0.4228301 -0.68654275 -0.65586448 0 0 0 2.2440864e-38
0.18670034 -0.69281292 -0.91545933 0 0 0 2.2440864e-38
0.18906379 -0.68999147 -0.9869951 0 0 0 2.2440864e-38
0.18844938 -0.69112968 -1.0571851 0 0 0 2.2440864e-38
0.18834329 -0.69149637 -1.1273626 0 0 0 2.2440864e-38
0.25701642 -0.6252141 -0.18426993 0 0 0 2.2440864e-38
0.26695371 -0.61259365 -0.25839186 0 0 0 2.2440864e-38
0.28581858 -0.588413 -0.33448875 0 0 0 2.2440864e-38
0.28921437 -0.58417916 -0.40889975 0 0 0 2.2440864e-38
0.21876478 -0.67574549 -0.92298853 0 0 0 2.2440864e-38
0.20312953 -0.69600725 -0.9879455 0 0 0 2.2440864e-38
0.20607233 -0.69258094 -1.0597203 0 0 0 2.2440864e-38
0.2249043 -0.6686883 -1.1386685 0 0 0 2.2440864e-38
0.25735736 -0.64577842 -0.18355639 0 0 0 2.2440864e-38
0.26734328 -0.63317752 -0.25739613 0 0 0 2.2440864e-38
0.29245257 -0.60120034 -0.33400956 0 0 0 2.2440864e-38
0.27251005 -0.62671447 -0.40461606 0 0 0 2.2440864e-38
0.22520399 -0.68821883 -0.92165983 0 0 0 2.2440864e-38
0.22152066 -0.69313645 -0.99127191 0 0 0 2.2440864e-38
0.21607327 -0.70041323 -1.0597203 0 0 0 2.2440864e-38
0.20998836 -0.70838547 -1.1273626 0 0 0 2.2440864e-38
0.28406978 -0.63630438 -0.1846267 0 0 0 2.2440864e-38
0.29780364 -0.61906171 -0.25926313 0 0 0 2.2440864e-38
0.3254807 -0.5840795 -0.33672509 0 0 0 2.2440864e-38
0.28194618 -0.63922119 -0.40422663 0 0 0 2.2440864e-38
0.23083282 -0.70507622 -0.91944534 0 0 0 2.2440864e-38
0.22715497 -0.70995021 -0.98889589 0 0 0 2.2440864e-38
0.22650886 -0.71110749 -1.0592132 0 0 0 2.2440864e-38
0.23713875 -0.69790816 -1.1343615 0 0 0 2.2440864e-38
0.2954917 -0.64281893 -0.18471588 0 0 0 2.2440864e-38
0.29933095 -0.63811326 -0.25839186 0 0 0 2.2440864e-38
0.3246448 -0.60632348 -0.33528745 0 0 0 2.2440864e-38
0.27599478 -0.66753459 -0.40169534 0 0 0 2.2440864e-38
0.25051618 -0.70078254 -0.92298853 0 0 0 2.2440864e-38
0.2443645 -0.70873189 -0.99174708 0 0 0 2.2440864e-38
0.24609613 -0.70689917 -1.0632695 0 0 0 2.2440864e-38
0.24592233 -0.70734453 -1.1338232 0 0 0 2.2440864e-38
0.31859136 -0.6382618 -0.18551861 0 0 0 2.2440864e-38
0.33617806 -0.61645699 -0.26088119 0 0 0 2.2440864e-38
0.34411097 -0.60656953 -0.33624586 0 0 0 2.2440864e-38
0.29397964 -0.66916895 -0.40266892 0 0 0 2.2440864e-38
0.25726795 -0.71617007 -0.92121696 0 0 0 2.2440864e-38
0.25840235 -0.71498299 -0.99269748 0 0 0 2.2440864e-38
0.24801946 -0.72825599 -1.0592132 0 0 0 2.2440864e-38
0.25753307 -0.71663141 -1.1338232 0 0 0 2.2440864e-38
0.34427094 -0.63072276 -0.18649971 0 0 0 2.2440864e-38
0.33933759 -0.63694191 -0.26000991 0 0 0 2.2440864e-38
0.35483718 -0.61776733 -0.33608612 0 0 0 2.2440864e-38
0.31073523 -0.67244029 -0.40344778 0 0 0 2.2440864e-38
0.27129912 -0.72246528 -0.92210275 0 0 0 2.2440864e-38
0.26754189 -0.72733641 -0.99174708 0 0 0 2.2440864e-38
0.27415347 -0.71949959 -1.0652977 0 0 0 2.2440864e-38
0.27880096 -0.71397996 -1.1381302 0 0 0 2.2440864e-38
0.35446548 -0.63898969 -0.18649971 0 0 0 2.2440864e-38
0.35833049 -0.63435411 -0.26088119 0 0 0 2.2440864e-38
0.39023495 -0.59513783 -0.33928087 0 0 0 2.2440864e-38
0.31200552 -0.69140983 -0.40208477 0 0 0 2.2440864e-38
0.28859258 -0.72142649 -0.9247601 0 0 0 2.2440864e-38
0.28969693 -0.72029471 -0.99649912 0 0 0 2.2440864e-38
0.30605412 -0.70053887 -1.0744245 0 0 0 2.2440864e-38
0.30089474 -0.70710301 -1.1435139 0 0 0 2.2440864e-38
0.33503103 -0.68708396 -0.4038372 0 0 0 2.2440864e-38
0.29644132 -0.735394 -0.9234314 0 0 0 2.2440864e-38
0.2963326 -0.73575068 -0.99459833 0 0 0 2.2440864e-38
0.31891656 -0.70854998 -1.0749315 0 0 0 2.2440864e-38
0.33815837 -0.68531609 -1.1548198 0 0 0 2.2440864e-38
0.37206507 -0.6660018 -0.40773147 0 0 0 2.2440864e-38
0.31912899 -0.73133349 -0.92741746 0 0 0 2.2440864e-38
0.32392502 -0.72575212 -1.0007759 0 0 0 2.2440864e-38
0.32929015 -0.71959567 -1.0744245 0 0 0 2.2440864e-38
0.26646113 -0.52573466 -0.11332408 0 0 0 2.2440864e-38
0.4037776 -0.64833212 -0.41104162 0 0 0 2.2440864e-38
0.33274817 -0.73502159 -0.9287461 0 0 0 2.2440864e-38
0.33257914 -0.73544836 -1.0003008 0 0 0 2.2440864e-38
0.25321484 -0.56843424 -0.1121946 0 0 0 2.2440864e-38
0.35928583 -0.72668529 -0.93406081 0 0 0 2.2440864e-38
0.36155224 -0.72420359 -1.0069536 0 0 0 2.2440864e-38
