# .PCD v0.7 - Point Cloud Data file format
VERSION 0.7
FIELDS x y z
SIZE 4 4 4
TYPE F F F
COUNT 1 1 1
WIDTH 814
HEIGHT 1
VIEWPOINT 0 0 0 1 0 0 0
POINTS 814
DATA ascii
1.8541869 4.973268 -0.48733309
1.8683984 4.9636908 -0.48696736
1.909197 5.0162363 -0.39782146
1.8844534 4.9512253 -0.48641875
1.9146761 4.9756989 -0.39516044
1.8975811 4.9312739 -0.48513871
1.9375197 4.9882512 -0.39663878
1.9202747 4.9438529 -0.48696736
1.9506868 4.9681206 -0.39560395
1.9347425 4.9275126 -0.48605302
1.9684894 4.9675303 -0.39604744
1.9553491 4.934371 -0.48733309
2.0018733 4.9979558 -0.20852494
1.9978067 4.9880552 -0.39826497
1.9719404 4.9234734 -0.48696736
2.0051806 4.9535356 -0.20697688
2.0108368 4.9677577 -0.39723012
1.9862362 4.9069819 -0.48605302
2.0233228 4.9461527 -0.20697688
2.0427899 4.9937415 -0.30457866
2.0358274 4.9769688 -0.39856064
2.0087321 4.9107294 -0.48715022
2.0297019 4.917604 -0.20604804
2.0508499 4.9688416 -0.30345142
2.0544965 4.9779234 -0.39915195
2.0279486 4.9135995 -0.48806453
2.0446353 4.9027538 -0.20573843
2.0498331 4.9152169 -0.30063334
2.0688894 4.9611554 -0.39841279
2.0428782 4.8987808 -0.48733309
2.065695 4.9025936 -0.20604804
2.0717111 4.916872 -0.30119696
2.0955777 4.9737577 -0.40003896
2.0739653 4.922462 -0.49044177
1.8524565 4.997117 -0.5526228
1.8660709 5.0338426 -0.65166777
2.0818684 4.8979192 -0.20612544
2.0754309 4.8827734 -0.2995061
2.1049511 4.9524651 -0.39885628
1.8754474 5.0107799 -0.46008959
2.0956519 4.9305854 -0.49190468
1.8562915 4.9595995 -0.54911602
1.8616931 4.9740314 -0.64467871
1.8560948 4.959074 -0.73634964
2.1021719 4.8957648 -0.20635764
2.1059189 4.9044909 -0.30130967
2.1459093 4.9978662 -0.4031435
1.888863 4.9908266 -0.45889011
2.1152806 4.9265313 -0.49227041
1.8758652 4.9564838 -0.5495286
1.877803 4.9616036 -0.64395571
1.8609359 4.917037 -0.73111558
2.1270733 4.9111433 -0.20728649
2.1308396 4.9198394 -0.30266234
2.1576366 4.9819484 -0.40240431
1.8938651 4.9569468 -0.45631978
2.1386626 4.9381375 -0.49409905
1.8878772 4.9412746 -0.5484972
1.8848778 4.933424 -0.64106369
1.879909 4.9204187 -0.73249298
2.1482632 4.9106379 -0.20759611
2.1798787 4.9831433 -0.4031435
1.9098665 4.944396 -0.45580569
2.159142 4.93574 -0.49464765
1.9095592 4.9436002 -0.5495286
1.9036624 4.9283342 -0.64130467
1.9064959 4.9356699 -0.73579872
2.2017858 4.9831638 -0.21100186
2.2158616 5.0152569 -0.40639582
1.9308749 4.944787 -0.45649111
2.1860716 4.9478321 -0.49665916
1.9247712 4.9291558 -0.54870343
1.93399 4.9527645 -0.64540172
1.9397047 4.9673991 -0.7415837
2.237289 5.0210238 -0.40743068
1.9427468 4.9294276 -0.45563436
2.2040367 4.9463978 -0.49720776
1.9482707 4.9434433 -0.55097252
1.9517239 4.9522057 -0.64612472
1.9545742 4.9594378 -0.74130821
1.9979423 5.015511 -0.11346597
2.2671354 5.0382543 -0.40950036
1.9740746 4.955595 -0.45871875
2.2319586 4.9600806 -0.49940211
1.9715296 4.9492064 -0.5524165
1.9735353 4.9542413 -0.64732975
1.9705391 4.9467196 -0.74048179
2.0028696 4.9747667 -0.11270954
2.2938375 5.0480695 -0.4109787
1.9780847 4.9132056 -0.45546299
2.2624819 4.9790649 -0.50214511
1.9770257 4.9105754 -0.54890972
1.9790746 4.9156647 -0.6432327
1.9782989 4.9137378 -0.73662513
1.9951576 4.9110222 -0.11140678
2.3196549 5.0625973 -0.41275269
2.0040102 4.9328127 -0.45786196
2.30549 5.031683 -0.50817961
1.9976842 4.9172416 -0.55035371
1.9967498 4.9149413 -0.64395571
1.9959629 4.9130044 -0.73745155
2.0139034 4.9055262 -0.1114488
2.0175359 4.9143744 -0.45683384
2.3347878 5.0466971 -0.51055682
2.0126715 4.9025254 -0.5495286
2.0102262 4.8965697 -0.6425097
2.014709 4.9074883 -0.73772705
2.0372326 4.9110408 -0.11174297
2.0362978 4.9087873 -0.45700517
2.0275776 4.8877654 -0.54870343
2.0281596 4.8891687 -0.6425097
2.0349593 4.9055605 -0.73855346
2.0387557 4.8714147 -0.11098653
2.0617101 4.9262619 -0.45923281
2.0506032 4.8997226 -0.55076623
2.0504079 4.8992567 -0.64467871
2.0473013 4.8918338 -0.73745155
2.0760646 4.9099517 -0.11203714
2.0851841 4.9315195 -0.46043229
2.0662234 4.8866773 -0.55014741
2.0706706 4.8971949 -0.64540172
2.0582738 4.8678761 -0.73497224
2.0869772 4.8857603 -0.11165892
2.1055932 4.9293413 -0.46094635
2.0934975 4.9010243 -0.5526228
2.0870459 4.8859205 -0.64491969
2.087774 4.8876252 -0.73910439
1.8380762 4.8859797 -0.81812745
2.1205146 4.9214158 -0.11262549
2.1297424 4.942832 -0.46283129
2.1112456 4.8999043 -0.55324161
2.1094561 4.89575 -0.64708871
2.1007669 4.8755841 -0.73827797
1.8562229 4.8875699 -0.8193661
1.8468411 4.8626108 -0.90696859
1.8334105 4.8272491 -0.99138004
1.8759328 4.9389482 -1.1072817
2.163275 4.9704471 -0.11392824
2.1526155 4.9459553 -0.46385941
2.1458621 4.9304385 -0.5575735
2.1234241 4.8788834 -0.64588374
2.1241565 4.8805666 -0.7402063
1.8663331 4.8604431 -0.81595981
1.8469933 4.8098264 -0.89837986
1.8377129 4.7856588 -0.98421526
1.8659524 4.8589449 -1.0908715
1.9494637 5.022378 -0.36784676
2.1803517 4.9599228 -0.46591568
2.1711237 4.9389305 -0.55943
2.1628644 4.9201422 -0.65239078
2.1531909 4.8981366 -0.74406302
1.8862802 4.8590961 -0.81688881
1.8638967 4.8011875 -0.89803636
1.8580842 4.7862153 -0.98572361
1.8759559 4.8320007 -1.0863585
1.9710553 5.0310917 -0.36893666
2.1959231 4.9530482 -0.46591568
2.1930792 4.9466343 -0.56108022
2.1799202 4.9169531 -0.65287274
2.1773999 4.9112682 -0.74709326
1.9346941 4.9377728 -0.83113325
1.9156302 4.8888664 -0.91555732
1.8745445 4.7840118 -0.98647779
1.896126 4.838841 -1.0892304
1.9827367 5.0068007 -0.17676036
1.9828699 5.0071368 -0.3677105
2.2197621 4.9576974 -0.46711516
2.211195 4.9385629 -0.56108022
2.2157767 4.9487963 -0.65817481
2.2188616 4.9556861 -0.75508207
1.9433206 4.9067669 -0.82710767
1.94587 4.9129534 -0.92139763
1.8949592 4.7844133 -0.98798621
1.9138485 4.8318591 -1.0892304
1.987704 4.9660959 -0.17557932
1.9982427 4.9924259 -0.36716554
2.2510533 4.978579 -0.46985686
2.2341983 4.9413013 -0.56231791
2.2453518 4.9659691 -0.66154879
2.2370102 4.9475203 -0.75508207
1.9671661 4.9142861 -0.82958496
1.9653282 4.9094467 -0.92208475
1.9482501 4.866785 -1.0064638
1.9373654 4.8393497 -1.0925125
2.028861 5.0231223 -0.081792973
1.998804 4.9487062 -0.17518565
2.0063066 4.9672813 -0.27081954
2.0154116 4.9898238 -0.36743802
2.2741227 4.9878001 -0.47139904
2.2843726 5.0102811 -0.57098162
2.322716 5.0943794 -0.6796239
1.9796349 4.900754 -0.82834631
1.9800041 4.9014215 -0.92174119
1.9686797 4.8733883 -1.0091034
1.9496262 4.8259797 -1.0908715
2.0238307 4.9582562 -0.080856986
2.0146623 4.9357948 -0.17498882
2.025254 4.9617438 -0.27092052
2.038965 4.9953351 -0.36839169
2.3098879 5.0174427 -0.47499752
2.3359971 5.0741563 -0.57923281
2.3347301 5.071404 -0.67769593
1.9908628 4.8770013 -0.82555938
1.9934874 4.8831868 -0.91967994
1.99024 4.8752322 -1.010989
1.9739599 4.8351121 -1.0945637
2.0302589 4.9296846 -0.080494672
2.0172179 4.8980198 -0.17387341
2.0256188 4.9184179 -0.26890096
2.0455301 4.9667645 -0.36675683
2.3466134 5.0553465 -0.4792814
2.3494139 5.0613794 -0.578614
2.3422914 5.0460353 -0.67528588
2.0159571 4.8944731 -0.82958496
2.0125704 4.8860087 -0.92139763
2.0137749 4.8889327 -1.015137
1.9913769 4.8343163 -1.0957944
2.044472 4.9129791 -0.080343701
2.0443723 4.9127398 -0.17466076
2.0467017 4.9183373 -0.26930487
2.0729198 4.9813404 -0.36839169
2.3557153 5.0266299 -0.67383987
2.0240133 4.863337 -0.82555938
2.0297079 4.8767805 -0.92105412
2.0271518 4.8706388 -1.0128744
2.0105865 4.8305998 -1.096615
2.0671155 4.9165134 -0.080524862
2.0592656 4.8978429 -0.1743983
2.056973 4.8923893 -0.26829511
2.0973501 4.9884248 -0.36948162
2.5566645 4.8436122 -0.50287652
1.8527162 5.010962 -0.52261287
2.3664808 5.0018096 -0.67167085
2.0464199 4.8668141 -0.82741731
2.0506237 4.8765736 -0.92242831
2.0449901 4.8631763 -1.0128744
2.0411777 4.8538733 -1.1035894
2.0765216 4.8886571 -0.080192737
2.0779848 4.8921022 -0.17446391
2.0748906 4.8848176 -0.26829511
2.1265409 5.0064154 -0.37138897
1.8969473 5.0736165 -0.43400475
2.5744002 4.834209 -0.50287652
1.8571274 4.9668493 -0.51871854
2.3659725 4.9536881 -0.66636884
2.0642438 4.8592811 -0.82741731
2.0669425 4.8653979 -0.92174119
2.0681765 4.8683028 -1.015514
2.0612504 4.8517642 -1.1048201
2.1091967 4.9225488 -0.080856986
2.0933435 4.88555 -0.17446391
2.0988801 4.8984709 -0.26940587
2.1461878 5.0088806 -0.37207016
1.8875316 5.0004864 -0.42825422
1.8776429 4.9740262 -0.52008158
2.375494 4.9337087 -0.66468185
2.0818343 4.8582206 -0.82834631
2.0822175 4.8588805 -0.92174119
2.0850079 4.8653922 -1.0162683
2.1003857 4.9010401 -1.1175381
2.151849 4.9716778 -0.081792973
2.1199698 4.8980236 -0.17518565
2.1255472 4.9109097 -0.2705166
2.166117 5.004643 -0.37234265
1.8966054 4.9693213 -0.42617765
1.8887631 4.9485145 -0.51813442
2.3857503 4.9088974 -0.66251284
2.1090455 4.8723173 -0.83206224
2.1117527 4.8783379 -0.92689443
2.1168714 4.8901625 -1.0230559
2.117557 4.8915124 -1.1171278
1.8794253 4.9212136 -1.1962533
1.8708676 4.8982925 -1.2825708
2.1523206 4.9231887 -0.17636669
2.1972339 5.0259228 -0.37452248
1.9162415 4.9660563 -0.42649713
1.9140536 4.9601288 -0.52008158
2.3967311 4.8858604 -0.66058481
2.1292639 4.8699856 -0.83299124
2.1233039 4.8561234 -0.92414606
2.1276987 4.8661742 -1.0196621
2.1362553 4.8855119 -1.1175381
1.8848048 4.8815422 -1.1882813
1.8818101 4.8732796 -1.2778188
2.2218678 5.0390782 -0.37602112
2.6938148 4.8965893 -0.41423103
1.9282157 4.9507236 -0.42569843
1.9274595 4.9485269 -0.51949739
2.4085486 4.8711877 -0.65962082
2.1589031 4.8958144 -0.83856517
2.1504743 4.8764701 -0.92929929
2.1556559 4.8882198 -1.0256956
2.1618614 4.90206 -1.1228714
1.9008396 4.8774137 -1.1887242
1.8971106 4.8673434 -1.2778188
2.2524977 5.0582428 -0.37806472
1.9507301 4.9547534 -0.42665687
1.9499593 4.9525418 -0.52066571
2.3947427 4.7989154 -0.55612952
2.3980179 4.8054786 -0.65190876
2.1776364 4.8896742 -0.83887482
2.1723411 4.8775549 -0.93101704
2.1751559 4.8838749 -1.0264498
2.187778 4.9119844 -1.126974
1.9086952 4.8450098 -1.1825236
1.9056797 4.8368602 -1.2716413
2.0225718 5.0902553 -0.3415353
2.2839088 5.0857258 -0.38065326
1.9677585 4.9523058 -0.42697632
1.9618332 4.9371424 -0.51969212
2.4124887 4.7967 -0.55674833
2.414887 4.8014688 -0.65239078
2.2002728 4.8990307 -0.84166181
2.2126784 4.9264226 -0.94166702
2.1985357 4.8949342 -1.0302207
2.2056048 4.9104443 -1.1282047
1.926789 4.8462391 -1.1842952
1.9244548 4.8398757 -1.2740172
2.0177407 5.0246091 -0.24170935
2.0151789 5.0179763 -0.33717898
1.9866394 4.9469104 -0.42713606
1.9784319 4.9262242 -0.51930273
2.4417579 4.8108869 -0.55943
2.3992214 4.7270789 -0.64347368
2.2573876 4.9773073 -0.8565256
2.250252 4.9613438 -0.94991219
2.2343102 4.9261956 -1.0385168
2.2413764 4.9415455 -1.1372304
1.9445385 4.8391442 -1.1842952
1.9400077 4.8273821 -1.2725916
2.033138 5.0097747 -0.24135259
2.0388119 5.0235038 -0.33805025
2.0085061 4.948832 -0.42793477
1.9987199 4.9244733 -0.51988685
2.466629 4.8160701 -0.56108022
1.952722 4.8084936 -1.1785376
1.962074 4.8310385 -1.2754428
2.0284233 4.9534397 -0.23894441
2.0485318 5.002296 -0.33705449
2.0285764 4.953567 -0.42889318
2.0111632 4.9108014 -0.519108
2.4799221 4.8047614 -0.56066769
1.9789112 4.8294058 -1.185181
1.9868183 4.8482199 -1.2816205
2.0381618 4.9256639 -0.2379633
2.0699053 5.0021319 -0.33755237
2.042907 4.9368882 -0.42809451
2.0268652 4.8978796 -0.51852387
2.0115209 4.85816 -1.1940389
2.0585136 4.9236908 -0.23823087
2.0812953 4.9779372 -0.33643216
2.0732925 4.9587965 -0.43065029
2.0555534 4.9161282 -0.52124983
2.0767343 4.964107 -1.2219411
2.0654304 4.8969488 -0.23724976
2.0930448 4.9621782 -0.33580986
2.0803378 4.9320526 -0.42889318
2.0663459 4.8986421 -0.52008158
2.1082449 4.9952922 -1.2312418
2.0872808 4.8985362 -0.23769572
2.1198256 4.9746733 -0.33717898
2.1085606 4.9482374 -0.43096974
2.0959916 4.9185028 -0.52300227
2.1143003 4.9588265 -1.2241555
2.1083808 4.8981938 -0.23805249
2.136466 4.9632034 -0.33693004
2.1290474 4.9459691 -0.43144897
2.1124306 4.9071312 -0.52261287
2.1340041 4.9546266 -1.2250414
2.1317155 4.9098735 -0.23894441
2.1846426 5.0315371 -0.34203315
2.1525149 4.9575429 -0.43304634
2.6318374 4.8472419 -0.4743121
2.1381426 4.9242063 -0.5251441
2.149559 4.9478979 -1.2250414
2.1617332 4.9294744 -0.24028228
2.1818805 4.9751811 -0.43528265
2.6735163 4.8812551 -0.47859597
2.1649704 4.936388 -0.52728599
2.1684632 4.941772 -1.2254843
2.2105968 4.9908471 -0.43735921
2.1870794 4.9375196 -0.52825958
2.1905122 4.9427066 -1.2276987
1.9770005 5.0014935 -0.14468047
2.2384615 5.0111814 -0.43975526
2.5625029 4.1641493 -0.4489316
2.2123227 4.9524331 -0.53059614
2.2028461 4.928678 -1.2259271
1.9834505 4.9645085 -0.14381991
2.2617319 5.0138474 -0.4407137
2.5640979 4.1327286 -0.44655436
2.2370076 4.958807 -0.53215384
2.2345357 4.9507914 -1.2334564
2.0008845 4.9553514 -0.14376613
2.569241 4.107337 -0.35908893
2.2858784 5.0182238 -0.44183186
2.5665536 4.1030412 -0.44435999
2.2815726 5.0085392 -0.53838468
2.2559016 4.949667 -1.2352279
2.0156879 4.9471893 -0.14371236
2.5629971 4.0688682 -0.35642791
2.3224351 5.0563087 -0.44582528
2.5783696 4.0932727 -0.44417712
2.3263757 5.0646553 -0.54519969
2.0641513 5.0134702 -0.049775604
2.0307622 4.9323735 -0.14349721
2.5875161 4.0746002 -0.35775843
2.6083021 4.1073327 -0.44673723
2.3549728 5.0777636 -0.54753625
2.0779037 4.994792 -0.04966544
2.0480585 4.9230514 -0.14344344
2.5570452 3.9940388 -0.26771811
2.5723219 4.0180554 -0.35361907
2.6265602 4.102777 -0.44728583
2.0812016 4.958734 -0.049371667
2.0611935 4.9110622 -0.14328207
2.4873536 3.8584344 -0.25915113
2.4973991 3.8741658 -0.34164453
2.6469901 4.1062231 -0.44856587
2.1126347 4.9823737 -0.049683798
2.0846429 4.9163594 -0.14365856
2.5003908 3.8476174 -0.25903839
2.5181026 3.8750207 -0.34253153
2.6446588 4.0697737 -0.44564006
2.0994995 4.9013348 -0.14344344
2.5187829 3.8450017 -0.17802799
2.4991572 3.8150425 -0.25746027
2.5071514 3.8273914 -0.33913133
2.6322744 4.0184031 -0.44106844
2.1291609 4.9277496 -0.14441155
2.5330505 3.8404062 -0.17818278
2.5089314 3.8038387 -0.25723481
2.5334389 3.841141 -0.34105319
2.5056233 3.7989678 -0.41784468
2.5271928 3.8011401 -0.17678952
2.5195396 3.789629 -0.25689664
2.5342495 3.8118982 -0.33927917
2.5129147 3.7798073 -0.41674751
2.5346751 3.7865388 -0.17647991
2.5325434 3.7833543 -0.25700939
2.555088 3.8171778 -0.34046185
2.5425024 3.7983754 -0.41967332
2.5395942 3.7639699 -0.17586069
2.5419257 3.7674253 -0.25655848
2.5791013 3.8226678 -0.34179235
2.5541792 3.7857289 -0.41930759
2.5578682 3.7612467 -0.1761703
2.5534711 3.754781 -0.25633302
2.5863652 3.8032935 -0.34090534
2.5400388 3.7351696 -0.414736
2.5868981 4.1869106 -0.51033545
2.579546 3.7633855 -0.17671213
2.5694737 3.7486911 -0.25655848
2.6059258 3.8020144 -0.34164453
2.5770586 4.1369987 -0.41913563
2.5492079 3.7192636 -0.41400453
2.5948637 4.1655812 -0.50889152
2.5947614 3.7601976 -0.17694433
2.5857744 3.7471743 -0.25700939
2.6212556 3.7987337 -0.34208801
2.5752182 4.1052499 -0.41673663
2.5518308 3.6981227 -0.41254163
2.6015944 4.1472974 -0.50765383
2.6073847 3.7490215 -0.17686693
2.5960708 3.7327538 -0.25667122
2.6260507 3.776001 -0.34090534
2.5913124 4.0974679 -0.416908
2.5596821 3.6805696 -0.41162729
2.4962027 4.8402424 -0.53273797
2.6231575 4.1478224 -0.50889152
2.4977343 3.9494989 -0.64984989
2.6302848 3.7525318 -0.17748615
2.6211958 3.7395651 -0.25779843
2.6467416 3.7761505 -0.34179235
2.6095266 4.0929832 -0.41742206
2.5903018 3.6956267 -0.41437027
2.5074944 4.8187003 -0.53137499
2.6148143 4.1012769 -0.50435334
2.4376473 3.8233943 -0.63056654
2.6421411 3.7443643 -0.25870022
2.6574416 3.7661872 -0.34164453
2.6374433 4.1082406 -0.41982102
2.5984542 3.6825891 -0.41382167
2.6287608 4.0947161 -0.50455964
2.4541256 3.8226938 -0.55141121
2.4539275 3.8223853 -0.63166845
2.7024362 3.8003089 -0.34563604
2.6315556 3.7006328 -0.41693038
2.6275382 4.0600023 -0.50146544
2.4519391 3.788671 -0.54779619
2.4571579 3.796735 -0.6289137
2.6536019 3.7069223 -0.41857615
2.5164661 3.8617246 -0.47794959
2.451906 3.7626519 -0.54514515
2.461503 3.7773793 -0.62698531
2.7149444 3.7633944 -0.42607358
2.5164046 3.8308604 -0.47526795
2.4547799 3.7370455 -0.54273516
2.4742436 3.7666764 -0.62670988
2.6219125 4.8329849 -0.44055396
2.5786457 3.8944321 -0.40165734
2.488694 3.7585814 -0.46742934
2.4585953 3.7131243 -0.54056615
2.4574108 3.7113354 -0.6189965
2.6769345 4.8915477 -0.44678369
2.5663536 3.8451769 -0.39754483
2.4958272 3.7395067 -0.46619165
2.4743924 3.707391 -0.54104811
2.4643989 3.6924176 -0.61734366
2.6999891 4.8970804 -0.44806159
2.5417452 3.7825162 -0.39189008
2.5031247 3.7250428 -0.46536654
2.4760611 3.684768 -0.5388791
2.466043 3.6698594 -0.61486435
2.5622964 3.7830739 -0.39291823
2.4955647 3.6845486 -0.46144724
2.4784157 3.6592293 -0.5364691
2.4794772 3.6607964 -0.61486435
2.5741684 3.7750056 -0.39291823
2.5026448 3.6701159 -0.4606221
2.4977293 3.6629076 -0.53815609
2.4909656 3.6529887 -0.61486435
2.4549005 3.9629009 -0.81283629
2.4182835 3.9037905 -0.88164568
2.4225242 3.9104836 -0.96410221
2.5902445 3.7688296 -0.39326093
2.5070653 3.6478031 -0.45897189
2.4953938 3.630821 -0.53478211
2.4942396 3.6291416 -0.61238503
2.4401851 3.9070852 -0.80321687
2.4128067 3.8632486 -0.8744809
2.5599449 4.0660682 -0.3280648
2.5938287 3.7445683 -0.39171875
2.5192857 3.6369543 -0.4587656
2.5199902 3.6379716 -0.53719211
2.5086522 3.6216037 -0.61266053
2.443511 3.880831 -0.71872592
2.4355919 3.868104 -0.79703301
2.4039259 3.8178134 -0.86618483
2.5545435 4.029357 -0.32574874
2.6033003 3.7331321 -0.39137602
2.5375264 3.6388123 -0.46000329
2.5223215 3.6170084 -0.53526407
2.5234168 3.6185794 -0.61348695
2.4514589 3.8664603 -0.71748728
2.4350712 3.8404655 -0.79291046
2.4127529 3.8052659 -0.86505353
2.4455211 3.8567977 -0.95712787
2.4880879 3.8929095 -0.23355913
2.4972985 3.9073207 -0.31662068
2.6112366 3.715414 -0.39051923
2.5508463 3.6294875 -0.46000329
2.5367031 3.6093638 -0.53550512
2.5298283 3.599582 -0.61183411
2.4432669 3.8224876 -0.71098435
2.4310915 3.803293 -0.7870701
2.4161053 3.7798481 -0.86128265
2.423795 3.7917323 -0.94317919
2.4828658 3.8535402 -0.23174155
2.4921496 3.8679492 -0.31416836
2.642113 3.7302096 -0.39308956
2.5652816 3.621737 -0.46020955
2.5487673 3.5984218 -0.53526407
2.5567443 3.6096838 -0.61513984
2.4561903 3.811846 -0.7106747
2.4407461 3.7877324 -0.78569591
2.427815 3.7676651 -0.86052841
2.4281332 3.7680144 -0.93948686
2.4851756 3.8306398 -0.23083276
2.4966869 3.8483832 -0.31321469
2.6538186 3.7218907 -0.39308956
2.5778019 3.6152799 -0.46041584
2.5669756 3.6000962 -0.53671008
2.5623214 3.593569 -0.61376244
2.4584744 3.7891927 -0.70788771
2.4472713 3.7717817 -0.78397816
2.434294 3.7517807 -0.858643
2.4314349 3.747231 -0.93620479
2.5174544 3.8494198 -0.1509746
2.5068519 3.8332074 -0.23153959
2.5107753 3.8392065 -0.31321469
2.6872096 3.7396483 -0.39600262
2.5945179 3.6106541 -0.46103466
2.5847876 3.5971129 -0.53767413
2.6228697 3.6501098 -0.62505698
2.4572046 3.7570059 -0.70355248
2.4524512 3.7495954 -0.78122979
2.4265265 3.7099583 -0.8511011
2.4387238 3.7284651 -0.93374324
2.5249453 3.8301535 -0.15058093
2.5021949 3.7956429 -0.22982299
2.5094545 3.8066552 -0.31130734
2.7453091 3.7911034 -0.40251413
2.6404037 3.6462352 -0.46681049
2.6363823 3.6406815 -0.54562718
2.6350687 3.6388674 -0.62478149
2.4676955 3.7430258 -0.70262349
2.4640088 3.7372916 -0.78054267
2.4455135 3.7092388 -0.85298657
2.4329782 3.6900856 -0.92635864
2.5292275 3.810544 -0.15012164
2.510793 3.7827706 -0.22952005
2.5291252 3.8103902 -0.31226102
2.6612203 3.6507826 -0.46846074
2.6431286 3.6259637 -0.54466313
2.6803269 3.6769938 -0.63277036
2.4750714 3.7286699 -0.70138484
2.4702892 3.7213247 -0.77882493
2.4484642 3.6884465 -0.8499698
2.3958409 3.6090364 -0.90789711
2.5365076 3.79128 -0.14972797
2.5224192 3.7702224 -0.2293181
2.5419645 3.7994363 -0.31212479
2.7386787 3.7282598 -0.56153321
2.4898198 3.7212155 -0.70169449
2.483912 3.7122457 -0.77882493
2.4248295 3.6239457 -0.83714861
2.4025211 3.5904698 -0.90543556
2.5403278 3.7670422 -0.14913745
2.5272865 3.7477033 -0.22851029
2.5558732 3.7900941 -0.31212479
2.4769273 3.672749 -0.69426262
2.4523327 3.6361437 -0.76473945
2.421622 3.5906081 -0.83149219
2.4156647 3.58164 -0.90543556
2.5555184 3.7640042 -0.14933428
2.5547557 3.762881 -0.22992396
2.5789754 3.7985542 -0.31348717
2.5691576 4.1661615 -0.47880214
2.4551556 3.6159091 -0.6849727
2.4416077 3.5958211 -0.75786847
2.4339936 3.5846076 -0.8318693
2.4280043 3.5756528 -0.90584582
2.5794566 3.7694595 -0.1499248
2.5719142 3.7584374 -0.23022689
2.5917537 3.7874296 -0.31335092
2.5620623 4.1209335 -0.38879925
2.5812571 4.1516457 -0.47821802
2.4717398 3.611778 -0.6859017
2.4558835 3.588474 -0.75821203
2.4460063 3.5740416 -0.83149219
2.4996886 3.6523442 -0.92758942
2.6011994 3.7714984 -0.15038408
2.5731976 3.7308984 -0.22911616
2.6090167 3.7828326 -0.31375965
2.5835021 4.1216507 -0.38975766
2.594342 4.1387839 -0.47782859
2.4782298 3.5929353 -0.68404377
2.4634259 3.5713394 -0.75649428
2.4613197 3.5682862 -0.83224636
2.5152812 3.6463804 -0.92840993
2.6267159 3.7830112 -0.15117145
2.6065512 3.7539697 -0.23103471
2.6334062 3.7926464 -0.31525829
2.6006942 4.1202574 -0.39039662
2.6158314 4.1440787 -0.4793863
2.488378 3.5835092 -0.68373406
2.4825001 3.5749111 -0.75889909
2.5240519 3.6347475 -0.84959269
2.5378897 3.6545384 -0.93251252
2.5996785 3.7149334 -0.22921713
2.5236993 3.9659958 -0.29311794
2.6667378 3.810761 -0.31757435
2.6007943 4.0871506 -0.38816032
2.6256592 4.1260672 -0.47841272
2.5105588 3.5873153 -0.68621141
2.5057535 3.5803161 -0.76199102
2.5576286 3.6544371 -0.8563804
2.5434103 3.6339862 -0.92964071
2.4613965 3.8662987 -1.0407979
2.3567274 3.7011743 -1.1499739
2.6524184 3.7608793 -0.23265034
2.5134292 3.9180763 -0.29025522
2.7071373 3.8384655 -0.32070786
2.6265213 4.0943708 -0.38975766
2.6364653 4.109714 -0.47763386
2.5225513 3.5764749 -0.6859017
2.5745058 3.6500008 -0.77882493
2.5710056 3.6450384 -0.8563804
2.5657387 3.6374364 -0.93292278
2.4734437 3.8539686 -1.0399122
2.5031114 3.8752992 -0.2059435
2.4899843 3.8548284 -0.28614783
2.5203831 3.9018898 -0.37218663
2.6331625 4.0763311 -0.47471315
2.5417821 3.5798099 -0.68806934
2.5905228 3.6483207 -0.78019911
2.5960898 3.6561611 -0.86090553
2.5839531 3.6389341 -0.93538427
2.4336689 3.7659137 -1.0182104
2.420074 3.7445903 -1.0905892
2.4396269 3.774411 -1.1778613
2.5151179 3.8627501 -0.20576511
2.5062745 3.8490217 -0.28639674
2.5150862 3.8625543 -0.36931136
2.5535884 3.9215345 -0.45777303
2.6227248 3.6652753 -0.70633942
2.6038771 3.6388013 -0.78019911
2.6129019 3.6514132 -0.86203682
2.5995514 3.6326227 -0.93620479
2.4336157 3.7357242 -1.0124528
2.3553076 3.6152413 -1.0554242
2.4238722 3.7200575 -1.1636641
2.5204878 3.840143 -0.20505159
2.513793 3.8297973 -0.28564996
2.5346961 3.8616433 -0.37011006
2.5220687 3.8422592 -0.44959503
2.6500094 3.6748695 -0.71005535
2.6425502 3.664391 -0.78775722
2.6423514 3.6641152 -0.86731613
2.632313 3.6500609 -0.94317919
2.4012578 3.6566782 -0.99340844
2.3696086 3.6082082 -1.0558994
2.4438632 3.7208509 -1.1667063
2.451252 3.7318168 -1.2479591
2.5226252 3.8172035 -0.20424886
2.5126054 3.8018973 -0.28415635
2.5347242 3.835366 -0.36835295
2.5308347 3.8293352 -0.44901088
2.6824343 3.6953084 -0.71562928
2.7350712 3.7676828 -0.81180561
2.6676958 3.6748698 -0.87184125
2.6644664 3.6702864 -0.95056379
2.4009011 3.6312206 -0.98853666
2.3787894 3.5975051 -1.054949
2.4438016 3.6954041 -1.1611289
2.4555259 3.7128513 -1.2441906
2.5255222 3.7913034 -0.20335694
2.5320566 3.8009689 -0.28477868
2.5520804 3.8310275 -0.36883217
2.5216777 3.7852457 -0.44492188
2.7087924 3.7029941 -0.71903557
2.6881049 3.6745789 -0.87410384
2.4022963 3.6045442 -0.98366481
2.3865716 3.5806794 -1.052573
2.4551835 3.6832027 -1.1601148
2.4605703 3.691005 -1.2398835
2.534946 3.7753863 -0.20300017
2.5426326 3.7866914 -0.28440529
2.5616593 3.8150275 -0.36819321
2.5044644 3.7297077 -0.4394699
2.426367 3.6119049 -0.98809373
2.407263 3.5831964 -1.0558994
2.4697456 3.6757853 -1.1606219
2.4687107 3.6739678 -1.2371916
2.5411994 3.7591276 -0.20255421
2.5533984 3.7770312 -0.28428084
2.5702822 3.802006 -0.36771399
2.5072505 3.7086291 -0.43791217
2.4529994 3.6268818 -0.99429423
2.4206851 3.5788343 -1.0568498
2.4791131 3.6648033 -1.1596078
2.4834785 3.6709802 -1.2388067
2.5560851 3.7514396 -0.20264341
2.5672247 3.767647 -0.28428084
2.5740967 3.7777324 -0.36627638
2.5208266 3.6994147 -0.43791217
2.50912 3.6807163 -1.0115671
2.4874079 3.6485922 -1.0801347
2.5001578 3.6668816 -1.1631571
2.5088532 3.6793587 -1.2447289
2.5754731 3.7502811 -0.20308937
2.5877967 3.7680852 -0.28502762
2.5946972 3.7781329 -0.3672348
2.5253537 3.6770241 -0.43635446
2.5181758 3.6650651 -1.0097955
2.5128663 3.6570637 -1.085362
2.512485 3.6560988 -1.16265
2.5245037 3.6733134 -1.2458056
2.5974686 3.7569625 -0.2038921
2.5984867 3.7582948 -0.28490317
2.6076875 3.7716026 -0.36739454
2.5402889 3.6739843 -0.43693861
2.528568 3.6555319 -1.0093526
2.5132906 3.6331744 -1.0806099
2.5239587 3.6481876 -1.16265
2.5437031 3.6764524 -1.2495743
2.6055098 3.7392206 -0.20344613
2.6133852 3.7503834 -0.28502762
2.6214936 3.7620196 -0.36739454
2.5480475 3.6564834 -0.43596503
2.5452955 3.6510396 -1.0106813
2.5343676 3.6350937 -1.0839363
2.539526 3.6420863 -1.1636641
2.5571609 3.6671045 -1.2495743
2.6203454 3.731281 -0.20353532
2.6362913 3.7538478 -0.28602335
2.6478679 3.7703323 -0.36915162
2.5682962 3.6568933 -0.43713331
2.5631449 3.6480694 -1.0124528
2.5655444 3.6512134 -1.0915396
2.5650938 3.6501658 -1.1692415
2.5772295 3.6671629 -1.2528045
2.6493556 3.7475028 -0.2048732
2.6712086 3.7782738 -0.370749
2.5878158 3.6601839 -0.43849632
2.5745931 3.6399989 -1.0124528
2.5904651 3.6621678 -1.097242
2.5955429 3.6689391 -1.1778613
2.5909624 3.6621931 -1.2538813
2.6954503 3.7830706 -0.37218663
2.6058338 3.6571586 -0.43927518
2.6003697 3.6480079 -1.0173247
2.6095088 3.6605585 -1.099618
2.6235733 3.6798801 -1.1844529
2.6366355 3.6718359 -0.44219589
2.6114471 3.6352847 -1.0164388
2.6656492 3.6877322 -0.44511661
2.6399977 3.650769 -1.0230823
2.5502789 3.8431337 -0.12408099
2.5554552 3.8204663 -0.12365071
2.5707951 3.817394 -0.12381206
2.5791552 3.799675 -0.12354314
2.6099977 3.8149474 -0.12434991
