# .PCD v0.7 - Point Cloud Data file format
VERSION 0.7
FIELDS x y z
SIZE 4 4 4
TYPE F F F
COUNT 1 1 1
WIDTH 273
HEIGHT 1
VIEWPOINT 0 0 0 1 0 0 0
POINTS 273
DATA ascii
1.7643722 11.426172 -0.65266854
1.7584957 11.389434 -0.85418522
1.7440814 11.296075 -1.0494577
1.8074872 11.427518 -0.65311944
1.8067712 11.424283 -0.85728973
1.7988496 11.374195 -1.0573208
1.8443333 11.427697 -0.65345758
1.8461479 11.440209 -0.85891587
1.8352084 11.372419 -1.0576866
1.8819757 11.395248 -0.6519922
1.8838414 11.407784 -0.85699403
1.8752556 11.355792 -1.0567722
1.9466519 11.523978 -0.45265549
1.9237287 11.388274 -0.6519922
1.9229829 11.38507 -0.85581136
1.916864 11.348843 -1.0567722
1.9641974 11.409481 -0.44839829
1.9605128 11.388079 -0.6523304
1.9550186 11.35735 -0.85418522
1.9514943 11.336876 -1.0562236
2.007041 11.408111 -0.44863051
2.0070829 11.408349 -0.65390849
2.0021613 11.381538 -0.85655057
1.9982088 11.35907 -1.0589665
2.0470726 11.390842 -0.4482435
2.0520618 11.418604 -0.65492302
2.041394 11.360382 -0.85551572
2.0370104 11.335988 -1.0575037
2.0911586 11.429779 -0.65593755
2.0896356 11.422582 -0.86068988
2.0797815 11.368715 -1.0611609
2.137069 11.443629 -0.65717751
2.1388097 11.454059 -0.86364657
2.13679 11.443243 -1.0688412
2.1928265 11.508296 -0.66134822
2.2031741 11.5637 -0.87251663
2.2380881 11.548399 -0.66405362
2.233041 11.523434 -0.87000346
2.2675292 11.476038 -0.86704677
2.3044565 11.442231 -0.86512494
1.7729816 11.347941 -0.98769325
1.763893 11.28977 -1.1848694
2.3167958 11.319648 -0.8564027
1.8076822 11.336412 -0.98717916
1.7949666 11.25667 -1.1819816
1.8694855 11.453873 -0.24390982
2.3480918 11.262267 -0.85270685
1.8639855 11.420176 -0.99506152
1.8503124 11.336403 -1.1910578
1.8999268 11.377914 -0.24243897
1.8992661 11.373959 -0.99163443
1.8908669 11.323658 -1.190439
1.938682 11.38963 -0.24281719
1.9343203 11.364006 -0.9912917
1.9304376 11.341196 -1.1929144
1.9824705 11.394268 -0.24306934
1.9752754 11.352914 -0.99094898
1.9764252 11.359523 -1.195596
2.3319402 10.442776 -0.41441819
2.0168726 11.345598 -0.99094898
2.0183947 11.354161 -1.1958022
2.3506019 10.373028 -0.41194126
2.0588944 11.3745 -0.9940334
2.3625762 10.426714 -0.98161501
2.0579526 11.369297 -1.1980714
2.3715501 10.290339 -0.40899992
2.4141331 10.475945 -0.79682559
2.103467 11.382553 -0.99540424
2.3900425 10.371407 -0.97722626
2.0999708 11.363634 -1.1982776
2.400682 10.269217 -0.40845811
2.4188845 10.347895 -0.78765988
2.1473176 11.418972 -0.99917406
2.4117334 10.317303 -0.97283751
2.142278 11.392172 -1.2019906
2.4632559 10.365343 -0.41263789
2.5004265 10.521757 -0.61050999
2.4526453 10.321495 -0.78632939
2.4463089 10.29483 -0.9715575
2.5077987 10.383443 -0.41372153
2.4686551 10.22137 -0.59360147
2.4895225 10.308558 -0.78603369
2.2152779 11.322746 -0.99214852
2.4816873 10.276114 -0.97064316
2.5367894 10.337304 -0.41225088
1.7642651 11.444018 -0.58536196
2.4975355 10.177346 -0.59157246
1.7584623 11.406379 -0.78800946
2.5220599 10.278057 -0.78440756
2.2633891 11.347772 -0.99506152
2.516012 10.25341 -0.96936309
2.585654 10.395223 -0.4148826
1.7955506 11.408822 -0.58384734
2.5328701 10.183014 -0.59236151
1.7998717 11.436277 -0.79046178
2.5524113 10.262341 -0.78381622
2.5458081 10.235791 -0.96844876
1.8386251 11.410052 -0.58425122
2.5731103 10.185278 -0.59303784
1.8433628 11.439454 -0.791143
2.5939155 10.268387 -0.78499889
2.5823314 10.22253 -0.96808308
1.886868 11.4797 -0.38186535
1.8757576 11.412104 -0.58465517
2.6125231 10.206161 -0.59472871
1.8705539 11.380445 -0.7874645
2.6301184 10.275645 -0.78618151
2.623323 10.249097 -0.97137463
1.9166676 11.399771 -0.37943769
1.9145917 11.387424 -0.58374637
2.6674919 10.264159 -0.59867406
1.9125836 11.375481 -0.78760076
2.6742842 10.291032 -0.7881034
2.673393 10.287602 -0.97594619
1.9574209 11.386759 -0.37924087
1.9640992 11.425608 -0.58606881
1.9535879 11.364461 -0.7873283
1.9911147 11.368739 -0.37884718
1.9958489 11.39577 -0.58485711
1.9906576 11.366129 -0.78787321
2.040163 11.402686 -0.38022503
2.0492125 11.453264 -0.5881893
2.0375745 11.388219 -0.78991681
2.0922539 11.451571 -0.58849227
2.0861146 11.417969 -0.79250538
2.1400712 11.475244 -0.59010786
2.1583123 11.573053 -0.80381328
2.4175868 10.405415 -0.91863698
2.4131184 10.386182 -1.1056581
2.1861651 11.521449 -0.59283423
2.1976352 11.581899 -0.80490315
2.4360957 10.337644 -0.91332495
2.4457355 10.37855 -1.1056581
2.2309704 11.526751 -0.80163342
2.4735045 10.326708 -0.91315359
2.4675398 10.301805 -1.0984383
2.4617684 10.277709 -1.2828504
1.7301569 11.413186 -0.71978813
2.262548 11.496191 -0.79999852
1.723796 11.371225 -0.92152131
2.4960597 10.278222 -0.90955514
2.4970748 10.282403 -1.0972006
2.4818625 10.219762 -1.2765844
1.7707511 11.398878 -0.71929026
2.2928939 11.429131 -0.79591137
1.7663801 11.370741 -0.92200053
2.5403972 10.296089 -0.9119541
1.750681 11.268385 -1.1155175
2.5314093 10.259662 -1.0957566
2.5193031 10.210596 -1.2765844
1.82188 11.452442 -0.51766831
1.8125181 11.392311 -0.71929026
2.3155851 11.326814 -0.78937185
1.8152487 11.409474 -0.9256745
2.5684285 10.248052 -0.90852702
1.7925956 11.265824 -1.115907
2.5651267 10.234878 -1.0941064
2.5528486 10.185887 -1.2746563
1.8652122 11.492023 -0.51971972
1.8550156 11.427938 -0.72190404
2.3369551 11.251105 -0.78460348
1.8526808 11.413554 -0.92647314
2.6094401 10.274696 -0.91161138
1.8471172 11.378024 -1.1275898
2.5992265 10.234481 -1.0949316
2.5960763 10.222076 -1.2801994
1.9060107 11.477225 -0.51936293
1.8916558 11.389556 -0.71991259
1.8896015 11.377187 -0.92407709
2.6485739 10.270852 -0.91212547
1.8855456 11.351542 -1.1256427
2.6441715 10.25378 -1.0980258
2.6513722 10.281704 -1.2888755
1.9490677 11.476071 -0.51963049
1.9307138 11.366803 -0.71891683
1.9302868 11.364288 -0.92359787
2.6922562 10.284207 -0.91418171
1.9311388 11.368103 -1.1279792
2.6867738 10.263265 -1.1000886
1.9817038 11.450205 -0.51873857
1.9674355 11.366582 -0.71929026
1.9659791 11.358169 -0.92359787
1.9671826 11.363941 -1.1281739
2.3300545 10.472135 -0.35214284
2.0295727 11.476312 -0.52025485
2.0118639 11.375019 -0.72028595
2.0082901 11.354813 -0.92391735
2.0102072 11.364495 -1.1289527
2.3618016 10.434279 -0.35115865
2.0719769 11.470761 -0.52034402
2.0595746 11.400963 -0.72240192
2.0576911 11.390536 -0.92743158
2.0610478 11.407979 -1.1340153
2.1152298 11.503497 -0.52212787
2.0953815 11.394436 -0.72240192
2.420218 10.538487 -0.73828202
2.1006768 11.42323 -0.93062633
2.0993969 11.415152 -1.1353784
2.4268613 10.392656 -0.35030571
2.1640115 11.531014 -0.52373332
2.4346099 10.425839 -0.54123515
2.1584868 11.500468 -0.72962093
2.4275191 10.395474 -0.72888154
2.1531956 11.472277 -0.93525869
2.1496675 11.452376 -1.1398568
2.4612424 10.368133 -0.3497808
2.2107689 11.546554 -0.52480364
2.4137542 10.168086 -0.52831012
2.2070055 11.525808 -0.73173684
2.4476304 10.310792 -0.72356814
2.4891248 10.340916 -0.34912467
2.442414 10.146859 -0.52760333
2.2458749 11.532533 -0.73260814
2.4725394 10.272013 -0.72138834
2.2163723 11.381038 -0.92902893
2.5317585 10.35114 -0.3497808
2.4824352 10.149481 -0.52820915
2.512542 10.272573 -0.72206956
2.2553532 11.35915 -0.9279108
2.5836589 10.398049 -0.35168356
2.5292516 10.179084 -0.53022867
2.54777 10.253613 -0.72138834
1.8435862 11.486787 -0.31297237
2.5714605 10.211764 -0.53234923
2.5867915 10.272647 -0.72329569
1.8753052 11.416822 -0.31125125
2.6217375 10.252585 -0.53497458
2.6254139 10.266963 -0.72356814
1.9141558 11.392127 -0.3107672
2.6728499 10.295108 -0.53770095
2.6745594 10.301692 -0.72670168
1.9472359 11.370293 -0.31033692
1.9940675 11.39262 -0.3111437
2.0414407 11.416723 -0.31200424
2.3741558 10.432187 -1.0465887
2.3598537 10.198099 -0.46727499
2.4015813 10.3776 -0.85347348
2.3993599 10.367178 -1.040942
2.385319 10.138814 -0.46495602
2.4614196 10.461461 -0.67012608
2.4318388 10.335737 -0.85075796
2.4314146 10.333125 -1.0384107
2.4111314 10.106005 -0.46379653
2.4655499 10.333296 -0.66240919
2.4582825 10.302837 -0.84868133
2.4490807 10.263479 -1.0321798
2.4566298 10.132051 -0.46540198
2.4925878 10.279572 -0.65954643
2.4927392 10.280196 -0.84756321
2.4833982 10.240893 -1.0308168
2.5033073 10.161779 -0.46718583
2.5316801 10.276182 -0.65991986
2.5327857 10.280669 -0.84836191
2.5223448 10.23752 -1.031401
2.5521593 10.221712 -0.47030753
2.5591154 10.248811 -0.65867519
2.5583091 10.245583 -0.84612554
2.5525653 10.221821 -1.0306221
2.6161265 10.316873 -0.47512388
2.6015687 10.258712 -0.65991986
2.6041749 10.268989 -0.84884107
2.5993104 10.249056 -1.0343217
2.6788323 10.403959 -0.47958344
2.6401467 10.252974 -0.66016877
2.6457722 10.274819 -0.85011899
2.6452963 10.272229 -1.0376319
2.6809096 10.277464 -0.66228473
2.6901152 10.312755 -0.85395265
2.6865985 10.298536 -1.0411367
2.4380167 10.445368 -0.28855419
2.4629905 10.404583 -0.28763983
2.5043824 10.409093 -0.28801632
2.5496385 10.428975 -0.2888231
