# .PCD v0.7 - Point Cloud Data file format
VERSION 0.7
FIELDS x y z
SIZE 4 4 4
TYPE F F F
COUNT 1 1 1
WIDTH 963
HEIGHT 1
VIEWPOINT 0 0 0 1 0 0 0
POINTS 963
DATA ascii
1.8655081 4.594883 -0.45533186
1.8808247 4.5843296 -0.45496613
1.8899875 4.5590076 -0.45313749
1.9293979 4.6130533 -0.37061998
1.8989213 4.5401855 -0.45185742
1.9439636 4.6004391 -0.37017649
1.9178747 4.5386992 -0.45240602
1.9521497 4.5796309 -0.36899382
1.9313431 4.5308194 -0.45222315
1.9760214 4.588932 -0.37032431
1.9447856 4.5163932 -0.45149171
1.9976006 4.5926328 -0.37121132
1.9684753 4.525672 -0.45313749
2.0209243 4.5998678 -0.19459233
2.0071998 4.5688457 -0.36988083
1.9802432 4.5074863 -0.45204028
2.0272691 4.5752244 -0.19381829
2.0377028 4.5989885 -0.37283751
2.0000417 4.513989 -0.45332035
2.021168 4.516686 -0.19165099
2.0561709 4.5949068 -0.28417572
2.052916 4.5878477 -0.37254184
2.0125055 4.4975386 -0.45240602
2.0394578 4.5194221 -0.19203801
2.0525265 4.5483828 -0.28169581
2.0623968 4.5704679 -0.37165484
2.0356357 4.5111628 -0.45441753
2.0568373 4.5137353 -0.19211541
2.0666995 4.535378 -0.28135765
2.0824425 4.570138 -0.37224618
2.0579371 4.5163579 -0.45569757
1.8422257 4.5619612 -0.59720147
2.0658488 4.4898267 -0.19141878
2.0682847 4.4951205 -0.27932861
2.091676 4.5461674 -0.37091565
2.0744765 4.5087848 -0.45569757
1.8693569 4.5807199 -0.51301712
1.8619344 4.5625315 -0.59816545
1.8689516 4.5797267 -0.68786573
2.0824671 4.4887528 -0.19165099
2.0798752 4.4831667 -0.27899045
2.1118233 4.5522389 -0.37195051
1.9005312 4.6156073 -0.42924559
2.0978506 4.522119 -0.45770907
1.8807087 4.5674663 -0.51219201
1.8671874 4.5346289 -0.59527344
1.8689995 4.5390296 -0.68263167
2.1006005 4.4847097 -0.19180579
2.1022217 4.4881711 -0.27977949
2.1445677 4.5787864 -0.37475935
1.9067192 4.5828538 -0.42684662
2.1211689 4.5288286 -0.45917201
1.8913232 4.5458488 -0.51054174
1.8891338 4.5405865 -0.59696043
1.8879061 4.5376358 -0.68345809
2.1144607 4.4715605 -0.19157359
2.1203649 4.4840465 -0.28000495
2.1698613 4.5889263 -0.37623769
1.9157816 4.5574651 -0.42513305
2.12924 4.5030189 -0.45734337
1.9110554 4.5462217 -0.51136684
1.907302 4.5372925 -0.59744245
1.9137365 4.5525994 -0.68676382
2.149138 4.5081916 -0.19343127
2.1610789 4.5332398 -0.28349939
2.1756845 4.5640826 -0.37475935
1.9254221 4.5404167 -0.42410493
2.1588023 4.5286679 -0.46063492
1.9245517 4.5383644 -0.51116061
1.9215468 4.5312781 -0.59744245
1.93963 4.5739212 -0.69089597
2.1803792 4.5308986 -0.19474714
2.1949928 4.5614696 -0.37520283
1.9451894 4.5406556 -0.42479035
2.1771133 4.5243144 -0.46100065
1.948223 4.5477376 -0.51301712
1.9514329 4.5552301 -0.60153949
1.9641818 4.58499 -0.69365072
2.2282538 4.5874815 -0.3780117
1.9665668 4.5444684 -0.42581847
2.2006426 4.5306358 -0.46246356
1.9688286 4.549695 -0.51404852
1.9736352 4.5608025 -0.60322648
1.970746 4.5541258 -0.69006956
1.998904 4.5796676 -0.10501906
2.2610731 4.6180768 -0.38111621
1.9752542 4.5254841 -0.42461899
2.2139893 4.5219116 -0.46228069
1.9783373 4.532548 -0.51281083
1.9728632 4.5200062 -0.59864748
1.9779116 4.5315723 -0.68759024
2.0043836 4.5466957 -0.10443072
2.2868202 4.6276398 -0.38259456
2.0006695 4.5382705 -0.4265039
2.2393713 4.5316215 -0.46410933
1.9925293 4.5198054 -0.51219201
1.9990274 4.5345454 -0.60153949
1.9961056 4.5279179 -0.68814117
2.021848 4.5411453 -0.10447275
2.3215694 4.6549244 -0.38555124
2.0140476 4.5236259 -0.42581847
2.280854 4.5732865 -0.46922952
2.0042269 4.5015678 -0.51095432
2.0051358 4.5036092 -0.59840643
2.0038249 4.5006647 -0.68511093
2.0385613 4.5402431 -0.10459882
2.0355949 4.5336366 -0.42736068
2.3184664 4.6123648 -0.473984
2.0191741 4.4970641 -0.51116061
2.0233405 4.5063438 -0.59961146
2.0163314 4.4907331 -0.68456
2.0543628 4.53092 -0.1045568
2.0571349 4.537034 -0.4283888
2.3488708 4.6304789 -0.47672695
2.0348215 4.4878216 -0.51095432
2.0382037 4.4952812 -0.59912944
2.0385034 4.4959416 -0.68648833
2.0726204 4.5269961 -0.10464084
2.0712616 4.5240283 -0.42787474
2.0496004 4.476716 -0.51054174
2.0488806 4.4751439 -0.59744245
2.0524943 4.4830365 -0.68566191
2.0734227 4.4914155 -0.10396846
2.0913105 4.5301633 -0.42907423
2.0719922 4.4883165 -0.51260453
2.0770764 4.4993296 -0.60153949
2.0723798 4.4891562 -0.68759024
1.8634534 4.5512605 -0.77074915
2.1042311 4.514596 -0.10468287
2.1104257 4.5278859 -0.42958829
2.0884287 4.4806919 -0.51260453
2.0893595 4.4826889 -0.60033447
2.0854721 4.4743485 -0.68648833
1.8672807 4.5133615 -0.76548487
1.8545257 4.4823098 -0.84581691
1.8350692 4.4350653 -1.0059484
2.1165071 4.497807 -0.10447275
2.1312492 4.5291357 -0.43044508
2.1150014 4.4946074 -0.51507992
2.1133835 4.491169 -0.60250348
2.1018574 4.4666748 -0.68648833
1.8723795 4.4791417 -0.76083994
1.8618226 4.4536691 -0.84169436
1.8454107 4.4144101 -0.91860092
1.8422519 4.4066377 -1.0010253
2.1374831 4.5055881 -0.10480894
2.1488836 4.5296192 -0.4311305
2.1419013 4.5149007 -0.51817411
2.1334393 4.4970641 -0.60419047
2.1260684 4.4815264 -0.68979406
1.8902808 4.4823408 -0.76238829
1.8788675 4.4550595 -0.84306854
1.8607963 4.41221 -0.91935509
1.8621721 4.4152575 -1.0043074
2.1816199 4.5554328 -0.10615373
1.9769428 4.6407123 -0.34441355
2.1714959 4.5342927 -0.43232998
2.1592941 4.5088143 -0.51838034
2.1456199 4.4802608 -0.6029855
2.1459022 4.4808507 -0.69089597
1.912118 4.4881067 -0.76455593
1.9013618 4.4626441 -0.84581691
1.8754157 4.4017463 -0.91860092
1.864531 4.3759875 -0.99692273
1.9931499 4.6316023 -0.34427729
2.1976402 4.5460377 -0.43421489
2.1896584 4.5295262 -0.52168083
2.1827652 4.5152674 -0.60876954
2.1804163 4.5104084 -0.69668096
1.9621425 4.5591106 -0.77787137
1.9457467 4.5207968 -0.8581847
1.9303609 4.4850492 -0.93745559
1.8867484 4.3835082 -1.0002048
1.9941841 4.594202 -0.34196123
2.2145298 4.5444851 -0.43472898
2.2012632 4.5172601 -0.52106202
2.2038975 4.522666 -0.61069751
2.1885011 4.4910707 -0.69475263
1.9701612 4.538424 -0.77539408
1.9607241 4.516469 -0.85852826
1.9616489 4.5185995 -0.94575167
1.9161011 4.4134703 -1.0084099
1.996146 4.5529604 -0.16317855
2.021425 4.6106186 -0.34373236
2.2373276 4.5488544 -0.43592846
2.2248287 4.5234423 -0.52271223
2.2222116 4.5181212 -0.61117953
2.2285526 4.5310135 -0.70219052
1.9725001 4.4986 -0.76982015
1.9733084 4.5002303 -0.85681051
1.9679434 4.4879951 -0.94084942
1.9519172 4.4512348 -1.0186663
2.0193422 4.5603433 -0.075301461
2.010392 4.5401306 -0.1629817
2.0302312 4.5849338 -0.34236994
2.2655029 4.5638266 -0.43815607
2.2467003 4.525949 -0.52394992
2.2599432 4.5526266 -0.61696357
2.2689261 4.5707226 -0.7096284
1.9961756 4.5076003 -0.77260715
1.9937786 4.5019751 -0.85852826
1.9939237 4.5023026 -0.94537461
1.9690113 4.4458408 -1.0190766
2.0116427 4.5046754 -0.074486256
2.0116041 4.5045891 -0.1619319
2.0345547 4.5559826 -0.25223982
2.0486932 4.5876427 -0.34305114
2.2878537 4.5727248 -0.43969828
2.292062 4.5811362 -0.53116971
2.3337557 4.6644688 -0.63311064
2.3382289 4.6734095 -0.72670794
2.0014637 4.4814615 -0.76920086
1.9998772 4.4776993 -0.85509276
2.0048542 4.488843 -0.94386619
1.9829686 4.4396329 -1.0190766
2.0347166 4.5118561 -0.074727796
2.030566 4.5026526 -0.16212875
2.0405645 4.5248237 -0.25092712
2.0622129 4.5728273 -0.3425062
2.3297458 4.6141143 -0.44449624
2.3509793 4.6561675 -0.54086483
2.3562055 4.6665177 -0.63455665
2.3481991 4.6506615 -0.72450411
2.0203128 4.4794989 -0.7701298
2.0138452 4.464951 -0.85406208
2.0229084 4.4850454 -0.94462037
2.0024467 4.4394727 -1.0207176
2.0406024 4.4872375 -0.074425869
2.0447016 4.4962511 -0.16212875
2.0539429 4.5165725 -0.25082615
2.0724387 4.5572443 -0.34182501
2.3586893 4.6351871 -0.44723791
2.3592801 4.6363478 -0.5394209
2.3618996 4.6414962 -0.72422868
2.0384655 4.4821229 -0.77167815
2.0335722 4.4711566 -0.85646695
2.0402412 4.4858198 -0.94612879
2.0228674 4.4474144 -1.0239997
2.0570354 4.4797282 -0.074425869
2.0620015 4.4905434 -0.16219436
2.0588138 4.4836011 -0.24941246
2.1024504 4.5786309 -0.34400484
1.8605273 4.5702524 -0.48269644
2.3707519 4.6169481 -0.72174937
2.049932 4.4638481 -0.76982015
2.0450125 4.4529305 -0.85440564
2.0550294 4.4747419 -0.94537461
2.0375204 4.4364128 -1.0231792
2.075964 4.4776015 -0.074516445
2.0843318 4.4956498 -0.16265365
2.0785937 4.4832735 -0.24981637
2.1192176 4.5708942 -0.34400484
1.90439 4.6295681 -0.401099
1.8795373 4.5689249 -0.48328057
2.3894806 4.6117458 -0.72230035
2.0720973 4.4688525 -0.7719878
2.0662925 4.45613 -0.85646695
2.0738952 4.4725256 -0.94650584
2.0611784 4.4448977 -1.0268714
2.0949047 4.4753962 -0.074607022
2.0965581 4.4789281 -0.16232559
2.0950119 4.475625 -0.24981637
2.1418781 4.5757465 -0.34495851
1.9052769 4.5838976 -0.39774451
1.8939787 4.5564914 -0.48269644
2.3971899 4.585402 -0.71954554
2.0926511 4.4701753 -0.77353609
2.0876236 4.4592333 -0.85852826
2.096936 4.479125 -0.94952261
2.074966 4.4319944 -1.0256407
1.8822509 4.5242658 -1.3696325
2.1234634 4.499537 -0.075120308
2.1140311 4.4795504 -0.16258803
2.1201444 4.4925046 -0.25112906
2.1707199 4.5996718 -0.34727457
1.9196682 4.5778894 -0.39774451
1.9136724 4.5633678 -0.48405945
2.4161999 4.5866113 -0.72092295
2.0990942 4.4474974 -0.77074915
2.0965765 4.4419622 -0.85646695
2.1084821 4.4671865 -0.94839132
2.103919 4.4573174 -1.0330253
1.9053559 4.5410914 -1.1183043
1.8920565 4.5089536 -1.196084
1.8776976 4.4740782 -1.2716643
1.8800548 4.4792566 -1.3577882
2.1588631 4.5314417 -0.075784557
2.1364534 4.4844041 -0.16304733
2.1305823 4.4720807 -0.25042224
2.1841311 4.5844793 -0.34672961
1.9286572 4.5524659 -0.39614713
1.9257262 4.5453267 -0.48289114
2.4236975 4.5602326 -0.7181682
2.1340785 4.4790168 -0.77756172
2.1221654 4.4538136 -0.860246
2.1299102 4.4700675 -0.95065391
2.121084 4.4513431 -1.0334356
1.9143753 4.5161209 -1.1138753
1.903262 4.4894681 -1.1927576
1.8910625 4.4600415 -1.2696362
1.8814201 4.4368691 -1.3470206
2.1918609 4.5576077 -0.16599989
2.2147563 4.6052146 -0.34890944
1.9523896 4.561862 -0.39758477
1.9431559 4.5400677 -0.48308587
2.4319706 4.5356064 -0.71568888
2.1530499 4.4765067 -0.77849072
2.1418915 4.4531074 -0.86162019
2.1454282 4.4604607 -0.95027679
2.1407788 4.4505954 -1.0350766
1.9178629 4.4785953 -1.1063461
1.9112909 4.4628177 -1.1875304
1.8959705 4.4264045 -1.2620305
1.8916017 4.4157791 -1.3427136
2.2492332 4.6395302 -0.35204297
1.9667114 4.555706 -0.39758477
1.9660878 4.5540428 -0.48522773
2.4443243 4.5244579 -0.71513796
2.1739988 4.4839439 -0.78096801
2.1584494 4.4516754 -0.86265081
2.1688566 4.4731393 -0.95442486
2.1624365 4.4596996 -1.0387689
1.9280564 4.4635959 -1.1041317
1.9175974 4.4389567 -1.1827784
1.916773 4.4364104 -1.2665938
1.9092851 4.4186559 -1.3454055
2.274116 4.6473856 -0.3532691
1.9825988 4.5466394 -0.39742503
1.9716269 4.5212626 -0.48250172
2.4580469 4.5102506 -0.71431148
2.1973667 4.4901438 -0.7834453
2.1860104 4.4667406 -0.86711693
2.196461 4.4880948 -0.95932704
2.181349 4.4570189 -1.0399996
1.9397236 4.4457736 -1.1014743
1.9307463 4.4247766 -1.1808776
1.9291513 4.4204893 -1.2640586
1.9239265 4.4080973 -1.3443288
2.0414169 4.6418905 -0.22636838
2.0323374 4.6210265 -0.31477505
2.2975314 4.6581135 -0.35463151
2.0016882 4.5513382 -0.39838347
1.9882252 4.5205121 -0.48308587
2.4579029 4.47646 -0.71017933
2.2228253 4.5062547 -0.78747094
2.2165935 4.4934235 -0.87364441
2.2270596 4.5146399 -0.96649182
2.1996703 4.4589214 -1.042051
1.949753 4.4307318 -1.0992599
1.9446377 4.4186888 -1.1808776
1.9422497 4.4126363 -1.2635516
1.9447497 4.4178977 -1.3491741
2.0430069 4.5996833 -0.22467375
2.0460196 4.6062493 -0.3142772
2.0175471 4.5421491 -0.39822373
2.0031643 4.5095563 -0.48269644
2.4560578 4.4344959 -0.70494527
2.2754307 4.5705986 -0.80016708
2.2558789 4.531127 -0.88257664
2.2602239 4.539854 -0.97365665
2.2535133 4.5261779 -1.0596919
1.9691478 4.430685 -1.1010314
1.9687105 4.4292846 -1.1856296
1.963125 4.4160948 -1.2665938
1.975014 4.4424214 -1.3588649
2.0385909 4.5447664 -0.22235475
2.0702412 4.6151109 -0.31539738
2.0374451 4.5419998 -0.39886266
2.0188644 4.5003681 -0.48250172
2.4722946 4.4254642 -0.70494527
1.9821794 4.4163208 -1.0992599
1.9841359 4.4202666 -1.1851544
1.9824671 4.4159298 -1.268622
2.0220516 4.5036836 -1.3798617
2.0536821 4.5401597 -0.22244395
2.0789709 4.5958533 -0.31452611
2.0599208 4.5537405 -0.40046003
2.0379152 4.5048847 -0.48367
2.4900715 4.4245811 -0.70604718
2.0073028 4.434947 -1.1054603
2.0100296 4.4405594 -1.1922824
2.0577681 4.5453897 -1.3076644
2.0965691 4.6306663 -1.4207784
2.0595174 4.508976 -0.22128446
2.0899961 4.5754929 -0.31365487
2.0732841 4.5389066 -0.3998211
2.0527587 4.4937644 -0.48328057
2.4994266 4.4033651 -0.70411885
2.2084348 4.3217969 -0.93179917
2.0308406 4.4435248 -1.1094464
2.0933232 4.5798154 -1.2317243
2.1049793 4.6046791 -1.326932
2.1095228 4.614192 -1.4180865
2.0726826 4.4941397 -0.2209277
2.1100962 4.5750527 -0.31415272
2.093246 4.5385184 -0.40046003
2.0792198 4.5079002 -0.48561716
2.492913 4.3546343 -0.69778287
2.2143586 4.2944708 -0.92765117
2.0544682 4.4519897 -1.1134324
2.1166077 4.5862236 -1.2355258
2.1121125 4.5758543 -1.3208475
2.119962 4.5924387 -1.4137795
2.08408 4.4756451 -0.22039254
2.122637 4.5582399 -0.31353039
2.1165991 4.5452738 -0.40173793
2.098249 4.5056624 -0.48620129
2.51579 4.3574767 -0.6997112
2.2364295 4.2985225 -0.93029082
2.1226647 4.5558057 -1.1413347
2.1301205 4.5713911 -1.2336251
2.1337731 4.5786037 -1.3238897
2.1351526 4.5811458 -1.4127027
2.1091688 4.4925876 -0.22155203
2.1360984 4.5497422 -0.31340593
2.1274788 4.5313835 -0.401099
2.1183152 4.5116611 -0.4875643
2.1319911 4.5385232 -1.1386772
2.1378629 4.5506101 -1.2298235
2.1432102 4.5613718 -1.3208475
2.1429806 4.5604692 -1.4083956
2.1290436 4.4920492 -0.22190881
2.1638741 4.5653315 -0.31502399
2.1602967 4.5577836 -0.40413398
2.1408052 4.5164571 -0.4889273
2.2874641 4.3244653 -0.85303146
2.1477757 4.5289164 -1.1382344
2.1536949 4.5409884 -1.2293482
2.159085 4.5517378 -1.3203404
2.1654601 4.5647659 -1.4121643
2.1483135 4.4961553 -0.22244395
2.2031634 4.6107421 -0.3186335
2.1780427 4.5581698 -0.40477294
2.1592746 4.5186892 -0.48990086
2.3186462 4.3502936 -0.85955888
2.1636755 4.5256658 -1.1391202
2.1671121 4.5324473 -1.228873
2.1683662 4.5344601 -1.3172982
2.1714797 4.5405636 -1.4067806
2.2137892 4.5896602 -0.40828714
2.1922529 4.5448084 -0.49360043
2.1692283 4.4948707 -1.1333625
2.1845543 4.5262237 -1.2293482
2.1900175 4.5369358 -1.3203404
2.2140663 4.5863476 -1.4234703
1.9880718 4.5814338 -0.13435383
2.2297235 4.5797234 -0.4081274
2.2027962 4.5242157 -0.49223742
2.3928878 4.4115572 -0.78654194
2.203625 4.5237107 -1.1426634
2.2104883 4.5373979 -1.2345754
2.2108684 4.5375748 -1.3228756
1.9856209 4.5367031 -0.13322437
2.2520049 4.5888028 -0.40956503
2.2275224 4.5387158 -0.49457401
2.3944173 4.3814778 -0.7825163
2.2109487 4.5027599 -1.1391202
2.2281573 4.5374064 -1.2364763
2.2268183 4.5340796 -1.3238897
2.0095103 4.5458522 -0.13370842
2.2776573 4.5983829 -0.41116241
2.2582788 4.5590596 -0.49768943
2.4152296 4.3813243 -0.78406465
2.2343655 4.5086064 -1.1426634
2.249949 4.5396533 -1.2393274
2.041481 4.5727787 -0.045974959
2.022083 4.5293283 -0.1334395
2.3043015 4.6096196 -0.41291949
2.299895 4.6006036 -0.5031414
2.2569823 4.5125971 -1.1457635
2.2622273 4.5226889 -1.2369515
2.0369532 4.5243993 -0.045552664
2.0321987 4.5138383 -0.13317057
2.3268447 4.618381 -0.41435713
2.3421018 4.6484618 -0.50917757
2.2922177 4.5472822 -1.1563929
2.0452454 4.4986973 -0.045369059
2.0470741 4.5027199 -0.133063
2.5181427 3.6657023 -0.40833575
2.072567 4.5147991 -0.045607746
2.066066 4.5006375 -0.13322437
2.5122883 3.6286113 -0.40522707
2.0867403 4.5082655 -0.045607746
2.0785153 4.4904957 -0.1331168
2.5157037 3.6092637 -0.403947
2.1049433 4.5042105 -0.045644466
2.1000385 4.4937153 -0.1334395
2.5289154 3.600019 -0.403947
2.1683724 4.5959444 -0.046654299
2.1199071 4.4932203 -0.13365464
2.5308204 3.5748031 -0.32464361
2.5409424 3.5891004 -0.40376416
2.1383061 4.4955654 -0.13392356
2.5316203 3.5522165 -0.32331309
2.5706995 3.6070499 -0.40668997
2.5399687 3.5364339 -0.32272175
2.551744 3.5254848 -0.32257393
2.5481751 3.4972403 -0.24427164
2.5216987 3.46103 -0.31739974
2.4758859 3.3719904 -0.23615554
2.4812481 3.3794169 -0.31074721
2.481102 3.3532619 -0.23547921
2.4983628 3.3767135 -0.31133854
2.5385518 3.4310319 -0.39187798
2.4785042 3.3278346 -0.23423925
2.49228 3.3464532 -0.30926886
2.5100613 3.3703287 -0.38584346
2.502378 3.3343091 -0.16146363
2.4834931 3.3091457 -0.2335629
2.4841762 3.3101764 -0.30675566
2.5152247 3.3515487 -0.38474628
2.5252566 3.6908076 -0.4637163
2.5254312 3.3394611 -0.16216026
2.495605 3.3000209 -0.2335629
2.5095253 3.3185487 -0.30838186
2.5334983 3.35025 -0.38566059
2.5252149 3.661875 -0.46124095
2.5068588 3.2933455 -0.16030258
2.4999127 3.2842202 -0.23299929
2.5126903 3.301126 -0.30749485
2.5295663 3.6436386 -0.38143739
2.5283294 3.3216724 -0.38328335
2.5253618 3.6375825 -0.45917815
2.5298593 3.2984073 -0.16099922
2.5119333 3.2750354 -0.23299929
2.5211313 3.2871466 -0.30705133
2.5349073 3.6229141 -0.38023791
2.5513954 3.3266063 -0.38492912
2.5443795 3.636452 -0.46020955
2.5358212 3.2812061 -0.1606122
2.5226989 3.2642269 -0.23288657
2.5380406 3.2841966 -0.30764267
2.5343888 3.5940571 -0.37818164
2.5574818 3.3093531 -0.38401482
2.5519586 3.618973 -0.45917815
2.5326192 3.2558715 -0.15976076
2.5231333 3.2436764 -0.23198478
2.5556934 3.2856531 -0.30852968
2.5514348 3.5942018 -0.37903842
2.5458555 3.2730055 -0.38072327
2.5771337 3.630404 -0.4616535
2.5506997 3.2544317 -0.16014779
2.5436275 3.2454083 -0.23277384
2.5701792 3.2794037 -0.30882534
2.5599532 3.5783436 -0.378353
2.5701201 3.2793279 -0.38255191
2.5892651 3.6193159 -0.46144724
2.5596735 3.2448335 -0.16007037
2.556284 3.2405367 -0.23299929
2.5792339 3.269747 -0.30867752
2.5804095 3.2712376 -0.38255191
2.5913222 3.5982494 -0.45979699
2.6071174 3.620182 -0.54153013
2.5583897 3.55252 -0.60880387
2.5926886 3.2620268 -0.16138624
2.5755987 3.240525 -0.23367563
2.6085749 3.2821317 -0.31074721
2.5911429 3.2601986 -0.38236904
2.6056616 3.5903375 -0.46000329
2.5550635 3.5206184 -0.52803403
2.4946005 3.4373066 -0.59062237
2.6033778 3.2509422 -0.16130883
2.6024365 3.2497668 -0.23502831
2.6305606 3.2850037 -0.31192988
2.611789 3.2615621 -0.38364908
2.6082342 3.5663116 -0.45814675
2.5281005 3.4567425 -0.51984
2.4533899 3.3545887 -0.57795048
2.6002166 3.2227142 -0.16037999
2.6055529 3.2293282 -0.23423925
2.7039511 3.3514025 -0.31917372
2.6149714 3.2411172 -0.38236904
2.6083052 3.5391126 -0.45587769
2.5313296 3.4346673 -0.51791197
2.4562666 3.3328171 -0.57574666
2.6345665 3.2443783 -0.2359301
2.7157238 3.3444397 -0.31932157
2.509798 3.3831456 -0.36224559
2.6376953 3.248347 -0.38419768
2.5850384 3.4845679 -0.44989559
2.4971564 3.3661048 -0.50875396
2.4561026 3.3107655 -0.57326734
2.5102503 3.357964 -0.36053202
2.6558888 3.2463651 -0.38511199
2.5846906 3.4575431 -0.4476265
2.4773805 3.3139942 -0.50224692
2.4587321 3.2890482 -0.57106352
2.5195892 3.3484693 -0.36036068
2.7078507 3.2887433 -0.39114651
2.5345387 3.3683369 -0.43710625
2.4925544 3.3125408 -0.5032109
2.4690528 3.2813077 -0.57106352
2.5234175 3.3280971 -0.35916117
2.5264347 3.3320765 -0.4335995
2.4758892 3.2654128 -0.49742687
2.471488 3.259608 -0.5688597
2.5452764 3.3314931 -0.36053202
2.5362151 3.3196328 -0.43318695
2.4890463 3.257894 -0.49766788
2.4798105 3.2458055 -0.56803328
2.5460124 3.3108437 -0.35916117
2.5454187 3.3100717 -0.43298066
2.4835351 3.229598 -0.49453485
2.4730895 3.2160144 -0.56417662
2.5130591 3.5553701 -0.29727468
2.5605712 3.3046403 -0.3595039
2.547786 3.2881398 -0.43133041
2.4929235 3.2173347 -0.49405286
2.4824336 3.2037966 -0.56362563
2.4387674 3.449882 -0.81112915
2.409091 3.4077756 -0.87466639
2.5029197 3.5136318 -0.29454988
2.5787973 3.3030863 -0.36036068
2.5549238 3.2725074 -0.43050531
2.4937027 3.1940916 -0.49188384
2.4978163 3.1993608 -0.56445211
2.4361997 3.4195907 -0.73210233
2.4479766 3.4361212 -0.80999786
2.4079351 3.379792 -0.86974329
2.5192719 3.5092974 -0.29495859
2.5933504 3.2967446 -0.36070338
2.5312324 3.2177784 -0.4245232
2.4980276 3.1755674 -0.49043784
2.4948287 3.1715009 -0.56114638
2.4625058 3.4298444 -0.73622489
2.4250433 3.3776655 -0.79830796
2.40889 3.3550432 -0.8656407
2.5244405 3.4932792 -0.2942774
2.5999839 3.2838943 -0.36018932
2.5425637 3.21137 -0.42472947
2.5055268 3.1645906 -0.48995581
2.5096986 3.1698601 -0.56224829
2.4733059 3.4222686 -0.66174805
2.4317207 3.364604 -0.72385716
2.425288 3.3557034 -0.79491407
2.3999252 3.3204887 -0.85866636
2.5066864 3.4420662 -0.29073516
2.6132452 3.2759006 -0.36036068
2.5406706 3.1849229 -0.42246041
2.520823 3.1600425 -0.49067882
2.5114172 3.1482515 -0.56004447
2.4614048 3.3796396 -0.65524518
2.4428763 3.3540761 -0.7235136
2.4260075 3.330915 -0.79114312
2.4143841 3.3148348 -0.85948688
2.4776168 3.3797855 -0.21184914
2.476198 3.3778498 -0.28596678
2.6222763 3.2661209 -0.36018932
2.548173 3.1738231 -0.42204785
2.5183082 3.1366255 -0.48826882
2.5262561 3.1465249 -0.56114638
2.4544864 3.3479874 -0.65060025
2.4429166 3.3320842 -0.72042167
2.4306531 3.315357 -0.78925771
2.4051101 3.2803967 -0.85251254
2.4793062 3.3562224 -0.21094035
2.4814482 3.3591218 -0.28514934
2.6492679 3.2750785 -0.36224559
2.5647929 3.1706488 -0.42287296
2.5485175 3.1505289 -0.49188384
2.5415092 3.141865 -0.5619728
2.4549999 3.3230765 -0.64750361
2.4562838 3.3246927 -0.72076523
2.4346185 3.2953677 -0.78661799
2.4194436 3.2747083 -0.85333306
2.482049 3.3342946 -0.21013252
2.4603822 3.3051882 -0.28133464
2.6625128 3.2668912 -0.36241692
2.5776536 3.1627693 -0.42307925
2.5475044 3.1257765 -0.48947382
2.5429959 3.1202445 -0.55976897
2.4494648 3.2902825 -0.64285868
2.4696295 3.3172481 -0.72110873
2.4466801 3.2864223 -0.78661799
2.426754 3.2595382 -0.85169202
2.5123305 3.3529308 -0.13752402
2.4913139 3.324882 -0.21003155
2.4934869 3.3277822 -0.28392318
2.7005646 3.2924051 -0.36618677
2.5370476 3.714854 -0.44005403
2.5926235 3.1608081 -0.42390436
2.5636075 3.1254332 -0.49067882
2.5515296 3.1107085 -0.55949348
2.4479406 3.2667589 -0.63976204
2.467042 3.2921295 -0.71732974
2.4405029 3.2567148 -0.78133869
2.4393299 3.2550311 -0.85251254
2.5185804 3.3357236 -0.13719596
2.4986691 3.3093522 -0.20962764
2.5008578 3.3122509 -0.28337824
2.516788 3.6563418 -0.4342126
2.6308031 3.1834874 -0.42823622
2.5712514 3.1114249 -0.48995581
2.56039 3.0982816 -0.55894256
2.4658508 3.2656491 -0.64131033
2.4790916 3.2830653 -0.71732974
2.4571574 3.2540178 -0.78284711
2.4123163 3.1945188 -0.83897406
2.5235276 3.316925 -0.13680229
2.5083628 3.2969925 -0.20942569
2.5117729 3.3014746 -0.28324199
2.5381145 3.6585412 -0.4355756
2.6449993 3.1768813 -0.4286488
2.5864491 3.1065574 -0.49067882
2.6084857 3.1330252 -0.56693137
2.4718213 3.2487271 -0.63976204
2.473212 3.2504373 -0.7121765
2.4536059 3.2246697 -0.77794486
2.407414 3.163847 -0.8332305
2.5363662 3.312155 -0.13693351
2.521137 3.2922678 -0.20962764
2.5184927 3.2888148 -0.28283328
2.5261219 3.6170738 -0.35349742
2.5370586 3.6325984 -0.43343374
2.6945739 3.2158251 -0.43504345
2.6102223 3.1151564 -0.49332985
2.655211 3.1688478 -0.57492018
2.4952302 3.2582014 -0.64316833
2.4953911 3.2582936 -0.71561199
2.4661129 3.2200642 -0.77869904
2.4042492 3.1391737 -0.82871765
2.5179608 3.263272 -0.13529319
2.5100026 3.2529585 -0.20770909
2.5366247 3.2874606 -0.28351447
2.5244451 3.5865972 -0.35142085
2.5583756 3.6346693 -0.43479675
2.6357105 3.122257 -0.49598086
2.6808636 3.1757452 -0.57795048
2.468528 3.1989765 -0.63325912
2.5049093 3.246006 -0.71492487
2.4347003 3.155025 -0.76512367
2.4193263 3.1349897 -0.82994843
2.547081 3.2761147 -0.13621177
2.5366206 3.26266 -0.20892081
2.552331 3.2828672 -0.28392318
2.5352666 3.5740685 -0.35110137
2.5762868 3.6317618 -0.4355756
2.6973007 3.1715603 -0.50537992
2.4547668 3.1571505 -0.62675625
2.4829261 3.1932518 -0.70530552
2.4353969 3.1321254 -0.76172984
2.4308004 3.1261013 -0.82994843
2.4222834 3.4132762 -0.95044786
2.3179927 3.2657146 -1.0495794
2.5438101 3.2507801 -0.13549003
2.548089 3.256248 -0.20902179
2.5032914 3.5056014 -0.26859808
2.5675504 3.2811182 -0.28446814
2.5441654 3.5628412 -0.35078192
2.6038785 3.6463284 -0.43830159
2.4707618 3.1572032 -0.62830454
2.4662311 3.1513004 -0.69774747
2.4464352 3.1260056 -0.7621069
2.4562929 3.1384888 -0.83528179
2.3147438 3.239527 -1.0434948
2.5755098 3.2665498 -0.13653983
2.5612433 3.2484555 -0.20912276
2.5161233 3.496403 -0.26859808
2.5783238 3.2701187 -0.28433192
2.572345 3.5745287 -0.35285848
2.6114118 3.6286821 -0.43732804
2.473753 3.1372652 -0.6261369
2.461905 3.1221273 -0.69328129
2.4517953 3.1093063 -0.76022142
2.4629314 3.1233168 -0.83364075
2.3247805 3.2288487 -0.97321421
2.3198185 3.2216012 -1.0404526
2.5998988 3.2727399 -0.13719596
2.5743747 3.2406104 -0.20922373
2.5336089 3.4936211 -0.26909596
2.5878098 3.2575221 -0.28405944
2.6176825 3.6094184 -0.43615976
2.4926097 3.1374598 -0.62799489
2.4806855 3.122339 -0.6953426
2.4680622 3.1064506 -0.76172984
2.5206349 3.172508 -0.84923047
2.3445857 3.2313132 -0.97654063
2.3350196 3.2177746 -1.0419737
2.6143749 3.26631 -0.13732718
2.5874832 3.2327123 -0.20932472
2.521663 3.4504676 -0.26648217
2.6146941 3.2667091 -0.2856943
2.6226726 3.5885506 -0.43479675
2.4954491 3.1175051 -0.62582725
2.4908814 3.1116877 -0.69499904
2.4904783 3.1111841 -0.76512367
2.5322456 3.1632481 -0.84923047
2.4484227 3.3487782 -0.94203287
2.34724 3.2101524 -0.97273898
2.3399456 3.1998248 -1.0389315
2.5628879 3.504437 -1.213503
2.6026385 3.2307897 -0.20972863
2.5135648 3.4168019 -0.26449069
2.6449721 3.2833407 -0.28787413
2.5044942 3.4044719 -0.33864191
2.6315742 3.5770867 -0.43440732
2.5089493 3.1142659 -0.62675625
2.5018809 3.1053813 -0.6953426
2.5248852 3.1339345 -0.77266556
2.5470831 3.1613743 -0.8508715
2.4427462 3.3190787 -0.93583238
2.3492522 3.1918101 -0.96941257
2.3408115 3.1799934 -1.0348752
2.5544722 3.4699981 -1.2043506
2.4831858 3.349838 -0.18614295
2.6283088 3.2382886 -0.21083936
2.4785216 3.3434238 -0.25951207
2.4872744 3.355231 -0.33464849
2.6162171 3.5290411 -0.42973417
2.5166111 3.1004469 -0.62582725
2.5194545 3.1038394 -0.69706035
2.5796795 3.1780331 -0.78586382
2.5648215 3.1596165 -0.8529228
2.3805394 3.2098446 -0.90748727
2.3701935 3.1956613 -0.97321421
2.372045 3.197808 -1.0434948
2.4524136 3.3059132 -1.1505128
2.4901125 3.3372161 -0.18587539
2.4806566 3.3244221 -0.2586408
2.4954183 3.3442049 -0.33432901
2.5939589 3.4761364 -0.42428219
2.5263391 3.0925255 -0.62582725
2.5366724 3.1050639 -0.69912165
2.5983491 3.1805608 -0.78850347
2.5846426 3.1636703 -0.85620481
2.3871114 3.1976614 -0.90615857
2.3732479 3.178859 -0.97036302
2.424906 3.2476981 -1.0622555
2.436281 3.2626948 -1.1381302
2.5035281 3.329664 -0.18596457
2.4856267 3.3057351 -0.25789398
2.502866 3.3286626 -0.33369008
2.601897 3.460242 -0.42350334
2.540168 3.0862963 -0.6264466
2.6081369 3.1687658 -0.71561199
2.6137338 3.1755655 -0.78963476
2.6049287 3.1647553 -0.85907662
2.3894358 3.1764219 -0.90261543
2.4222565 3.2198184 -0.98556948
2.4391196 3.2418804 -1.0632695
2.4493811 3.2552826 -1.1386685
2.5145085 3.3188732 -0.18587539
2.502548 3.3029668 -0.25839186
2.5126417 3.3162887 -0.3333706
2.5977325 3.4284711 -0.42077732
2.5829935 3.1149902 -0.63418812
2.641114 3.1849682 -0.7214523
2.6742516 3.2249293 -0.80434144
2.6252573 3.1657341 -0.86194843
2.401062 3.1676428 -0.90261543
2.435215 3.2124667 -0.98604465
2.4416347 3.2205853 -1.0592132
2.4508221 3.2324693 -1.1338232
2.5249226 3.3109574 -0.18587539
2.5104914 3.2919142 -0.25814292
2.5230477 3.3083787 -0.3333706
2.5215812 3.3063362 -0.40675792
2.6307468 3.1523709 -0.64347798
2.6548941 3.1811934 -0.72248292
2.7120566 3.2496874 -0.81263751
2.6389525 3.1619794 -0.86317921
2.4062696 3.1538818 -0.90084386
2.4511874 3.212523 -0.98842067
2.4470458 3.2067468 -1.0571851
2.4551225 3.217098 -1.1311313
2.5333889 3.2969279 -0.18560781
2.5213237 3.2811079 -0.25801846
2.5363712 3.3006899 -0.33353034
2.5385342 3.3033853 -0.40753677
2.6677141 3.172955 -0.64967126
2.7290051 3.245739 -0.81414586
2.7223301 3.2376852 -0.88656378
2.4320772 3.1635959 -0.90615857
2.4676819 3.2096779 -0.99032152
2.464679 3.2054248 -1.0597203
2.4610264 3.2004433 -1.1284393
2.5246615 3.2607634 -0.18409155
2.5247781 3.2607965 -0.25714719
2.5460107 3.2882187 -0.33321086
2.5640297 3.3113711 -0.40967864
2.7048674 3.19331 -0.65586448
2.4687376 3.1870399 -0.91545933
2.471101 3.1898613 -0.9869951
2.4704866 3.1887231 -1.0571851
2.4703805 3.1883564 -1.1273626
2.5390537 3.2546387 -0.18426993
2.548991 3.2672591 -0.25839186
2.5678558 3.2914398 -0.33448875
2.5712516 3.2956736 -0.40889975
2.500802 3.2041073 -0.92298853
2.4851668 3.1838455 -0.9879455
2.4881096 3.1872718 -1.0597203
2.5069416 3.2111645 -1.1386685
2.5393946 3.2340744 -0.18355639
2.5493805 3.2466753 -0.25739613
2.5744898 3.2786524 -0.33400956
2.5545473 3.2531383 -0.40461606
2.5072412 3.1916339 -0.92165983
2.5035579 3.1867163 -0.99127191
2.4981105 3.1794395 -1.0597203
2.4920256 3.1714673 -1.1273626
2.566107 3.2435484 -0.1846267
2.5798409 3.2607911 -0.25926313
2.607518 3.2957733 -0.33672509
2.5639834 3.2406316 -0.40422663
2.5128701 3.1747766 -0.91944534
2.5091922 3.1699026 -0.98889589
2.5085461 3.1687453 -1.0592132
2.519176 3.1819446 -1.1343615
2.577529 3.2370338 -0.18471588
2.5813682 3.2417395 -0.25839186
2.6066821 3.2735293 -0.33528745
2.558032 3.2123182 -0.40169534
2.5325534 3.1790702 -0.92298853
2.5264018 3.1711209 -0.99174708
2.5281334 3.1729536 -1.0632695
2.5279596 3.1725082 -1.1338232
2.6006286 3.241591 -0.18551861
2.6182153 3.2633958 -0.26088119
2.6261482 3.2732832 -0.33624586
2.5760169 3.2106838 -0.40266892
2.5393052 3.1636827 -0.92121696
2.5404396 3.1648698 -0.99269748
2.5300567 3.1515968 -1.0592132
2.5395703 3.1632214 -1.1338232
2.6263082 3.24913 -0.18649971
2.6213748 3.2429109 -0.26000991
2.6368744 3.2620854 -0.33608612
2.5927725 3.2074125 -0.40344778
2.5533364 3.1573875 -0.92210275
2.5495791 3.1525164 -0.99174708
2.5561907 3.1603532 -1.0652977
2.5608382 3.1658728 -1.1381302
2.6365027 3.2408631 -0.18649971
2.6403677 3.2454987 -0.26088119
2.6722722 3.2847149 -0.33928087
2.5940428 3.1884429 -0.40208477
2.5706298 3.1584263 -0.9247601
2.5717342 3.1595581 -0.99649912
2.5880914 3.1793139 -1.0744245
2.582932 3.1727498 -1.1435139
2.6170683 3.1927688 -0.4038372
2.5784786 3.1444588 -0.9234314
2.5783699 3.1441021 -0.99459833
2.6009538 3.1713028 -1.0749315
2.6201956 3.1945367 -1.1548198
2.6541023 3.213851 -0.40773147
2.6011662 3.1485193 -0.92741746
2.6059623 3.1541007 -1.0007759
2.6113274 3.1602571 -1.0744245
2.5484984 3.3541181 -0.11332408
2.6858149 3.2315207 -0.41104162
2.6147854 3.1448312 -0.9287461
2.6146164 3.1444044 -1.0003008
2.5352521 3.3114185 -0.1121946
2.6413231 3.1531675 -0.93406081
2.6435895 3.1556492 -1.0069536
2.5559204 3.313185 -0.11257109
2.6704726 3.1643324 -0.9402613
2.680198 3.1756315 -1.0164576
2.554055 3.2893474 -0.11203324
2.5771811 3.294136 -0.1125173
2.6300809 3.3364816 -0.1142922
