# .PCD v0.7 - Point Cloud Data file format
VERSION 0.7
FIELDS x y z
SIZE 4 4 4
TYPE F F F
COUNT 1 1 1
WIDTH 277
HEIGHT 1
VIEWPOINT 0 0 0 1 0 0 0
POINTS 277
DATA ascii
1.7328932 12.240261 -0.69787061
1.7234224 12.174895 -0.91139698
1.7142119 12.109828 -1.122969
1.7725432 12.243076 -0.47912747
1.7713385 12.234756 -0.69787061
1.7730925 12.248379 -0.91731036
1.7525328 12.106354 -1.1231519
1.8212212 12.262197 -0.48013371
1.8211563 12.26176 -0.69978696
1.8173872 12.237852 -0.91701466
1.8018665 12.13334 -1.1262606
1.8667538 12.25939 -0.48028854
1.8612761 12.223417 -0.69798338
1.8601274 12.217306 -0.91597986
1.8460256 12.124685 -1.1260778
1.9058727 12.257415 -0.48044333
1.8962932 12.195806 -0.69674343
1.8960488 12.195635 -0.91479719
1.8859431 12.130634 -1.1271749
1.9520427 12.258242 -0.48075294
1.9425504 12.198633 -0.69730699
1.9404216 12.186634 -0.91464931
1.9332099 12.141341 -1.1288207
1.9963152 12.24706 -0.48059815
1.9888538 12.201285 -0.69787061
1.9873208 12.19322 -0.91568416
1.9802601 12.1499 -1.1302836
2.040024 12.272271 -0.48183659
2.0281577 12.200886 -0.69820881
2.0272522 12.196754 -0.91642332
2.0203798 12.155407 -1.1313808
2.0920241 12.306087 -0.48346207
2.0775478 12.220931 -0.69978696
2.076287 12.214805 -0.91834521
2.071593 12.187189 -1.135038
2.1388249 12.308181 -0.48384908
2.1503592 12.374556 -0.70903027
2.136749 12.297506 -0.92514557
2.1278396 12.24623 -1.1412555
2.1882803 12.362406 -0.48624858
2.1944449 12.397233 -0.71072108
1.7313734 12.119772 -1.0528084
1.7439688 12.207941 -1.2787266
1.8060157 12.319575 -0.26168615
1.7763611 12.117289 -1.053151
1.7794681 12.138482 -1.2721256
1.8428334 12.257508 -0.26050946
1.8332038 12.193458 -1.060348
1.8233544 12.127944 -1.2717131
1.8752625 12.212131 -0.25966898
1.8708967 12.183699 -1.0600053
1.8632579 12.133953 -1.2729508
1.9200096 12.205175 -0.25966898
1.9180169 12.192508 -1.0613761
1.9160655 12.180102 -1.2785203
1.9707724 12.235564 -0.26046744
1.9598399 12.16769 -1.0598339
2.403204 11.648654 -1.092065
1.9822061 12.306551 -1.2925473
2.3024642 10.984877 -0.4346979
2.368067 11.298844 -0.85566354
2.0016096 12.183102 -1.0617188
2.4352934 11.619604 -1.0900534
2.0144083 12.261003 -1.2884218
2.3510535 11.015453 -0.43624595
2.3894815 11.19646 -0.84856749
2.0472403 12.18158 -1.0622329
2.4259052 11.36713 -1.0671954
2.0537286 12.220186 -1.284915
2.3909869 11.004809 -0.43616855
2.4368827 11.216051 -0.64793414
2.4237278 11.156442 -0.84620219
2.0952487 12.193632 -1.0639465
2.420619 11.142132 -1.0468975
2.101536 12.230223 -1.2867715
2.4298522 11.01676 -0.43694258
2.4544737 11.128391 -0.64331251
2.4561875 11.137086 -0.84531516
2.1462598 12.259613 -1.0702866
2.4513218 11.115024 -1.0450689
2.1440647 12.247074 -1.2892468
2.4767783 11.03703 -0.43810365
2.4948075 11.117373 -0.6431998
2.494807 11.118278 -0.844576
2.4855032 11.076815 -1.042326
2.5114398 11.029195 -0.43810365
1.6826677 12.277404 -0.62645948
2.5248446 11.088063 -0.64195985
2.5261812 11.094828 -0.84339333
2.5167525 11.053416 -1.040863
2.564471 11.074431 -0.44027093
1.7201366 12.21775 -0.6237331
2.5699723 11.098188 -0.64308703
1.7163852 12.191104 -0.84059793
2.5690784 11.095209 -0.84413248
2.5612917 11.061581 -1.0425088
1.7742139 12.275769 -0.40712622
2.6137452 11.101918 -0.44174162
1.7680483 12.233109 -0.6248439
2.6074286 11.075089 -0.64229798
1.7701899 12.247926 -0.84495759
2.6110983 11.091543 -0.844576
2.60273 11.055996 -1.0428745
1.834046 12.369344 -0.18879713
1.8227131 12.292912 -0.40791357
2.6786044 11.193333 -0.44576657
1.813166 12.228522 -0.62494487
2.6540449 11.090703 -0.64376342
1.8112643 12.215696 -0.8431865
2.6693714 11.15561 -0.85019368
2.6515775 11.081247 -1.0461661
1.8489349 12.205344 -0.1863817
1.8646168 12.308865 -0.40863529
1.8467873 12.191167 -0.62332922
2.7062945 11.15411 -0.64793414
1.8490343 12.206 -0.84291399
1.897952 12.226151 -0.1868044
1.9078786 12.290096 -0.40824163
1.8911513 12.182343 -0.62322825
1.8894739 12.171536 -0.84100664
1.9418083 12.213187 -0.18671381
1.9510282 12.271176 -0.40784794
1.9389255 12.195056 -0.62423801
1.9340721 12.16453 -0.84100664
1.9827292 12.222818 -0.18695536
2.3512545 11.323919 -0.24306934
1.9898896 12.26696 -0.40791357
1.9804262 12.208621 -0.62524778
1.9780295 12.193847 -0.84345895
2.3931568 11.317182 -0.24311136
2.041383 12.299023 -0.40922582
2.031374 12.23872 -0.62716633
2.024996 12.200294 -0.84441262
2.4017856 11.357988 -0.9983173
2.4140048 11.241182 -0.24164051
2.0886822 12.343793 -0.41093174
2.0698128 12.232278 -0.62716633
2.073967 12.256828 -0.84877229
2.4044044 11.196476 -0.98478019
2.4462228 11.191237 -0.24075799
2.1400433 12.371509 -0.41211277
2.1391461 12.366322 -0.63443667
2.4330854 11.131135 -0.97981089
2.4519808 11.21758 -1.1906452
2.4885268 11.188052 -0.24088407
2.1858473 12.366265 -0.63484055
2.4643486 11.07935 -0.97604108
2.4658675 11.086179 -1.1776496
2.5395126 11.250396 -0.24239695
2.4965105 11.059891 -0.97501296
2.4888568 11.025984 -1.17208
2.5365844 11.048724 -0.97484159
2.5345941 11.040054 -1.1745554
1.743981 12.240069 -0.55191785
1.7391682 12.204765 -0.76870334
1.7324792 12.157825 -0.98397839
2.5784221 11.045175 -0.97535563
1.7395355 12.205817 -1.2060596
2.5754931 11.032627 -1.1747618
1.7876104 12.270119 -0.5535233
1.7826824 12.234796 -0.7709437
2.2901788 12.000988 -0.83419466
1.7836006 12.241097 -0.99116653
2.6167812 11.052532 -0.97672647
1.7686875 12.137262 -1.1998287
2.6252649 11.088364 -1.181569
1.8322754 12.261508 -0.55343413
1.8289884 12.23805 -0.77156603
1.8269811 12.224619 -0.99036783
2.671725 11.102924 -0.9820385
1.8125725 12.12676 -1.1994393
2.6840394 11.154099 -1.1896138
1.8711531 12.215211 -0.55165029
1.8720173 12.219426 -0.77081925
1.8699629 12.206017 -0.98940945
2.7303863 11.166611 -0.98855001
1.861529 12.149549 -1.20236
1.9113715 12.221116 -0.55218548
1.9054607 12.181931 -0.7688278
1.9082999 12.200082 -0.98940945
1.9067644 12.188872 -1.2068385
2.2752697 11.070518 -0.37097368
1.9558352 12.212055 -0.55209625
1.9482027 12.163039 -0.76808101
1.9523721 12.189069 -0.98908997
1.96402 12.260419 -1.214627
2.3051805 11.011236 -0.36926773
2.0073686 12.24621 -0.55396926
1.9979362 12.187334 -0.77007246
2.0009043 12.20544 -0.99100679
2.0063672 12.237424 -1.2130693
2.3410091 11.009806 -0.36946458
2.0468194 12.245756 -0.55423683
2.039505 12.200686 -0.77131712
2.3754237 11.171657 -0.7798351
2.0412111 12.210891 -0.99196523
2.0444739 12.229097 -1.2128747
2.412641 11.145723 -0.37431991
2.0960646 12.263774 -0.55539638
2.4163554 11.162883 -0.57738483
2.0902629 12.228545 -0.77355748
2.4155097 11.158976 -0.77956259
2.0916629 12.236734 -0.99468076
2.0909591 12.231332 -1.2138481
2.4607868 11.169991 -0.37543532
2.1475322 12.293406 -0.557091
2.4551046 11.144197 -0.57687992
2.4486659 11.114972 -0.77711028
2.1481643 12.295757 -1.0001118
2.141942 12.258881 -1.217353
2.49543 11.160254 -0.3753697
2.2022426 12.377086 -0.56119382
2.4792063 11.087697 -0.57435554
2.1933844 12.326053 -0.78065211
2.4861848 11.118908 -0.77792776
2.543411 11.18222 -0.37641951
2.5233722 11.094117 -0.5751633
2.2335503 12.290436 -0.77890956
2.5242658 11.098047 -0.77711028
2.5924873 11.207878 -0.37760055
2.5577152 11.057549 -0.57374966
2.2676587 12.223288 -0.77517557
2.5635762 11.082889 -0.77670157
2.6340775 11.226923 -0.37851912
2.6006534 11.084463 -0.57556725
2.2793884 12.074877 -0.76621401
2.6070411 11.11169 -0.77929014
2.6472864 11.100115 -0.57687992
2.3323114 12.111524 -0.7690767
2.6546934 11.131173 -0.78133374
1.862756 12.305284 -0.11425805
1.8603654 12.289491 -0.33437863
1.8894888 12.22229 -0.11354198
1.8952994 12.259876 -0.3337332
2.3437996 11.73917 -1.1710111
1.9370881 12.23306 -0.11370723
1.9364692 12.229151 -0.3330878
1.9831978 12.233812 -0.3334105
2.3749585 11.279744 -0.92359787
2.4021745 11.205145 -0.71456051
2.3941362 11.16765 -0.91513187
2.4039469 11.212458 -1.1217483
2.4095621 11.042917 -0.50455713
2.4368436 11.167012 -0.71269351
2.4337766 11.152957 -0.91465265
2.4327185 11.147174 -1.1161016
2.4455388 11.041145 -0.5048247
2.4619846 11.114477 -0.70983082
2.459317 11.102434 -0.91113842
2.4535191 11.075345 -1.1096761
2.4868686 11.036006 -0.50500309
2.5053377 11.117063 -0.71057761
2.4973633 11.081676 -0.91018003
2.4879689 11.039093 -1.10695
2.5326571 11.050187 -0.50607336
2.5429451 11.094186 -0.70970637
2.539299 11.078279 -0.91065919
2.5355287 11.060943 -1.1100655
2.5709796 11.057745 -0.50678688
2.5759778 11.078365 -0.70920849
2.5686717 11.046945 -0.90874237
2.5666583 11.037413 -1.1085078
2.616087 11.067692 -0.50767881
2.6239119 11.099931 -0.71119994
2.6265714 11.111181 -0.91481239
2.6171701 11.070547 -1.1127915
2.6645691 11.091056 -0.50919509
2.6687746 11.107707 -0.71232015
2.6724014 11.122803 -0.91656947
2.6809802 11.157651 -1.1225272
2.2998562 11.196092 -0.30748636
2.3239906 11.135969 -0.30603415
2.3843238 11.21929 -0.30856204
2.4228921 11.198751 -0.30823934
2.448626 11.148124 -0.30705607
2.4960103 11.168342 -0.30786285
2.5409164 11.176664 -0.3083469
