# .PCD v0.7 - Point Cloud Data file format
VERSION 0.7
FIELDS x y z normal_x normal_y normal_z curvature
SIZE 4 4 4 4 4 4 4
TYPE F F F F F F F
COUNT 1 1 1 1 1 1 1
WIDTH 265
HEIGHT 1
VIEWPOINT 0 0 0 1 0 0 0
POINTS 265
DATA ascii
-0.49710631 0.54405403 -0.70643759 0 0 0 1.5616501e-37
-0.45705736 0.54659653 -0.7068885 0 0 0 1.5616501e-37
-0.46614385 0.48300552 -0.92337155 0 0 0 1.5616501e-37
-0.47580051 0.41374207 -1.1374153 0 0 0 1.5616501e-37
-0.40417099 0.5921545 -0.48702264 0 0 0 1.5616501e-37
-0.40991497 0.55203438 -0.70756483 0 0 0 1.5616501e-37
-0.4084959 0.56349182 -0.92987627 0 0 0 1.5616501e-37
-0.42858529 0.42316151 -1.1388782 0 0 0 1.5616501e-37
-0.3588506 0.58356094 -0.48694524 0 0 0 1.5616501e-37
-0.35980701 0.57705116 -0.70936841 0 0 0 1.5616501e-37
-0.36327994 0.55491829 -0.92972839 0 0 0 1.5616501e-37
-0.3798306 0.44225311 -1.1412555 0 0 0 1.5616501e-37
-0.3171109 0.59554577 -0.48764187 0 0 0 1.5616501e-37
-0.32668734 0.53175831 -0.70711398 0 0 0 1.5616501e-37
-0.32637322 0.53532314 -0.92869359 0 0 0 1.5616501e-37
-0.33824849 0.45621204 -1.143084 0 0 0 1.5616501e-37
-0.27300787 0.5787344 -0.48725483 0 0 0 1.5616501e-37
-0.28190577 0.52091122 -0.7068885 0 0 0 1.5616501e-37
-0.28491414 0.50279522 -0.9267717 0 0 0 1.5616501e-37
-0.29222775 0.45526123 -1.1436327 0 0 0 1.5616501e-37
-0.22402394 0.59335327 -0.48810628 0 0 0 1.5616501e-37
-0.23655677 0.5138464 -0.7068885 0 0 0 1.5616501e-37
-0.23652625 0.51544476 -0.92825007 0 0 0 1.5616501e-37
-0.24370837 0.46987724 -1.1456442 0 0 0 1.5616501e-37
-0.18619394 0.57923508 -0.48779666 0 0 0 1.5616501e-37
-0.19580436 0.51949024 -0.70756483 0 0 0 1.5616501e-37
-0.19703805 0.51319695 -0.92854571 0 0 0 1.5616501e-37
-0.2043643 0.46764565 -1.1460099 0 0 0 1.5616501e-37
-0.13511348 0.60534382 -0.48911253 0 0 0 1.5616501e-37
-0.15013671 0.514081 -0.70767754 0 0 0 1.5616501e-37
-0.14912629 0.52156639 -0.92972839 0 0 0 1.5616501e-37
-0.15403557 0.49174118 -1.1489358 0 0 0 1.5616501e-37
-0.086801291 0.61350727 -0.48973176 0 0 0 1.5616501e-37
-0.095198393 0.56363869 -0.71094656 0 0 0 1.5616501e-37
-0.097484112 0.55138683 -0.93253726 0 0 0 1.5616501e-37
-0.10251164 0.52152538 -1.1524101 0 0 0 1.5616501e-37
-0.042568684 0.63639545 -0.4908928 0 0 0 1.5616501e-37
-0.031199455 0.70264339 -0.71928811 0 0 0 1.5616501e-37
-0.054207087 0.56987953 -1.1575303 0 0 0 1.5616501e-37
0.012868881 0.68357086 -0.49306011 0 0 0 1.5616501e-37
0.014468908 0.69269371 -0.71917534 0 0 0 1.5616501e-37
-0.45090616 0.43075943 -1.0670309 0 0 0 1.5616501e-37
-0.44015706 0.50685787 -1.2946101 0 0 0 1.5616501e-37
-0.38077295 0.59752083 -0.26445976 0 0 0 1.5616501e-37
0.14765668 0.4288435 -0.70587403 0 0 0 1.5616501e-37
-0.40474272 0.43220425 -1.0677162 0 0 0 1.5616501e-37
-0.39999676 0.46493721 -1.2908971 0 0 0 1.5616501e-37
-0.34429789 0.57398605 -0.26408154 0 0 0 1.5616501e-37
0.17828083 0.38027859 -0.70350683 0 0 0 1.5616501e-37
-0.35300314 0.51524639 -1.0754273 0 0 0 1.5616501e-37
-0.3607167 0.46319962 -1.2913096 0 0 0 1.5616501e-37
-0.30536246 0.52365971 -0.26315701 0 0 0 1.5616501e-37
0.21963644 0.35389709 -0.7024923 0 0 0 1.5616501e-37
-0.30797386 0.50647449 -1.0752559 0 0 0 1.5616501e-37
-0.3155787 0.45642567 -1.2913096 0 0 0 1.5616501e-37
-0.26061857 0.5127306 -0.26307297 0 0 0 1.5616501e-37
-0.26175785 0.50541306 -1.07577 0 0 0 1.5616501e-37
-0.2573055 0.53400898 -1.3001796 0 0 0 1.5616501e-37
-0.21486795 0.55006504 -0.2639975 0 0 0 1.5616501e-37
-0.22356009 0.49536991 -1.0754273 0 0 0 1.5616501e-37
0.13301516 -0.70264339 -0.44119978 0 0 0 1.5616501e-37
0.19033837 -0.4260025 -0.86527276 0 0 0 1.5616501e-37
-0.17446542 0.51169491 -1.0774835 0 0 0 1.5616501e-37
0.18484807 -0.45240498 -1.0693898 0 0 0 1.5616501e-37
0.17801762 -0.69166851 -0.44197381 0 0 0 1.5616501e-37
0.21816397 -0.50113297 -0.86024642 0 0 0 1.5616501e-37
-0.12816954 0.5101347 -1.0779976 0 0 0 1.5616501e-37
0.2270391 -0.4592247 -1.0695727 0 0 0 1.5616501e-37
0.21601939 -0.6854744 -0.44251564 0 0 0 1.5616501e-37
0.24464917 -0.55235958 -0.65266854 0 0 0 1.5616501e-37
0.24837136 -0.53409195 -0.85832459 0 0 0 1.5616501e-37
-0.084331989 0.53307438 -1.080568 0 0 0 1.5616501e-37
0.24356747 -0.55642986 -1.0611609 0 0 0 1.5616501e-37
0.26078987 -0.67678452 -0.44321227 0 0 0 1.5616501e-37
0.28221774 -0.57890129 -0.65165406 0 0 0 1.5616501e-37
0.28686452 -0.55673122 -0.85728973 0 0 0 1.5616501e-37
-0.028383017 0.58615112 -1.0858799 0 0 0 1.5616501e-37
0.27815032 -0.59654045 -1.058235 0 0 0 1.5616501e-37
0.31173968 -0.6409626 -0.44499254 0 0 0 1.5616501e-37
0.32657099 -0.57438183 -0.65244311 0 0 0 1.5616501e-37
0.32392359 -0.58533955 -0.85581136 0 0 0 1.5616501e-37
0.31766796 -0.61342525 -1.0575037 0 0 0 1.5616501e-37
0.35224652 -0.62547398 -0.44592139 0 0 0 1.5616501e-37
-0.50341916 0.56904507 -0.63383079 0 0 0 1.5616501e-37
0.36023808 -0.59012222 -0.6519922 0 0 0 1.5616501e-37
-0.50866604 0.53030872 -0.85340446 0 0 0 1.5616501e-37
0.35843778 -0.59717274 -0.85551572 0 0 0 1.5616501e-37
0.34682584 -0.64854336 -1.0549436 0 0 0 1.5616501e-37
0.40413666 -0.58810997 -0.44777906 0 0 0 1.5616501e-37
-0.46009517 0.5469656 -0.63302296 0 0 0 1.5616501e-37
0.40330029 -0.59174728 -0.65244311 0 0 0 1.5616501e-37
-0.46850765 0.48652649 -0.85081589 0 0 0 1.5616501e-37
0.40460014 -0.58519268 -0.85714191 0 0 0 1.5616501e-37
0.39591646 -0.62296581 -1.058235 0 0 0 1.5616501e-37
0.45359254 -0.53596973 -0.45017859 0 0 0 1.5616501e-37
-0.42170346 0.53752613 -0.63282102 0 0 0 1.5616501e-37
0.43958044 -0.59604931 -0.65266854 0 0 0 1.5616501e-37
-0.4148345 0.58576679 -0.85803658 0 0 0 1.5616501e-37
0.44316459 -0.57979202 -0.85817671 0 0 0 1.5616501e-37
0.43526244 -0.61367798 -1.0598809 0 0 0 1.5616501e-37
-0.36117554 0.63442326 -0.19057852 0 0 0 1.5616501e-37
-0.35963774 0.6449461 -0.41467166 0 0 0 1.5616501e-37
-0.37080503 0.56852818 -0.63473958 0 0 0 1.5616501e-37
0.48820138 -0.57466221 -0.65447211 0 0 0 1.5616501e-37
-0.37444031 0.54365063 -0.85558426 0 0 0 1.5616501e-37
0.4902308 -0.56522369 -1.0653669 0 0 0 1.5616501e-37
-0.32815576 0.54260921 -0.18928023 0 0 0 1.5616501e-37
-0.31768537 0.61246777 -0.41381869 0 0 0 1.5616501e-37
-0.33475518 0.49857807 -0.63150835 0 0 0 1.5616501e-37
-0.33166933 0.51916695 -0.85435814 0 0 0 1.5616501e-37
-0.28151226 0.54362202 -0.189401 0 0 0 1.5616501e-37
-0.2707864 0.61343861 -0.41408116 0 0 0 1.5616501e-37
-0.28736448 0.50552845 -0.63221514 0 0 0 1.5616501e-37
-0.28875029 0.4965086 -0.85326821 0 0 0 1.5616501e-37
-0.24411821 0.52769852 -0.18925004 0 0 0 1.5616501e-37
-0.2356503 0.58168697 -0.41322818 0 0 0 1.5616501e-37
-0.24792171 0.50344849 -0.63241714 0 0 0 1.5616501e-37
-0.2511915 0.48260021 -0.85272324 0 0 0 1.5616501e-37
-0.19176829 0.56393433 -0.18991429 0 0 0 1.5616501e-37
0.18340135 -0.35162354 -0.24685153 0 0 0 1.5616501e-37
-0.18849409 0.58432102 -0.41355625 0 0 0 1.5616501e-37
-0.1956687 0.53964806 -0.63463861 0 0 0 1.5616501e-37
-0.19965506 0.51482677 -0.85544807 0 0 0 1.5616501e-37
-0.13778877 0.64899826 -0.41591829 0 0 0 1.5616501e-37
-0.15350866 0.55304527 -0.63564837 0 0 0 1.5616501e-37
-0.15918946 0.51837063 -0.85612923 0 0 0 1.5616501e-37
0.20264101 -0.43982697 -1.0029439 0 0 0 1.5616501e-37
0.30421042 0.045510292 -1.2607802 0 0 0 1.5616501e-37
0.24414635 -0.45015717 -0.24508651 0 0 0 1.5616501e-37
-0.087676287 0.66703415 -0.41677126 0 0 0 1.5616501e-37
-0.10705233 0.55142021 -0.63595128 0 0 0 1.5616501e-37
-0.10461593 0.56595802 -0.85994393 0 0 0 1.5616501e-37
0.23034477 -0.51492214 -0.99711782 0 0 0 1.5616501e-37
0.28271675 -0.26916409 -1.2283944 0 0 0 1.5616501e-37
0.28508496 -0.46305084 -0.24500246 0 0 0 1.5616501e-37
-0.038988829 0.67562294 -0.64271677 0 0 0 1.5616501e-37
0.2596426 -0.58032894 -0.99214852 0 0 0 1.5616501e-37
0.26527739 -0.55435562 -1.1991028 0 0 0 1.5616501e-37
0.31656241 -0.49039841 -0.24458222 0 0 0 1.5616501e-37
-0.001005888 0.66094398 -0.64231282 0 0 0 1.5616501e-37
0.29033804 -0.60947514 -0.99026358 0 0 0 1.5616501e-37
0.28493786 -0.63399601 -1.1914704 0 0 0 1.5616501e-37
0.32805467 -0.63418388 -0.98889273 0 0 0 1.5616501e-37
0.32213545 -0.66059971 -1.1896138 0 0 0 1.5616501e-37
0.37137985 -0.63376141 -0.98974949 0 0 0 1.5616501e-37
0.36580229 -0.65823174 -1.1908516 0 0 0 1.5616501e-37
-0.43569827 0.57131004 -0.56021267 0 0 0 1.5616501e-37
-0.44437587 0.50815201 -0.77853614 0 0 0 1.5616501e-37
-0.45407844 0.43928909 -0.9948405 0 0 0 1.5616501e-37
0.4142921 -0.63544655 -0.99043494 0 0 0 1.5616501e-37
-0.44573593 0.49693871 -1.2202737 0 0 0 1.5616501e-37
0.41446137 -0.63471603 -1.1943582 0 0 0 1.5616501e-37
-0.39467251 0.57959175 -0.56083703 0 0 0 1.5616501e-37
-0.39472425 0.57769585 -0.78326589 0 0 0 1.5616501e-37
-0.39641058 0.56599331 -1.0055429 0 0 0 1.5616501e-37
0.45317626 -0.6281538 -0.99180579 0 0 0 1.5616501e-37
-0.40864193 0.47958851 -1.2191055 0 0 0 1.5616501e-37
0.46836615 -0.56354427 -1.2028158 0 0 0 1.5616501e-37
-0.35173738 0.55515289 -0.56003433 0 0 0 1.5616501e-37
-0.34887445 0.57301998 -0.78339034 0 0 0 1.5616501e-37
-0.35468614 0.53371048 -1.0034662 0 0 0 1.5616501e-37
0.50866628 -0.57782269 -0.99711782 0 0 0 1.5616501e-37
-0.36984909 0.42966938 -1.2148217 0 0 0 1.5616501e-37
-0.31484604 0.53549862 -0.55940998 0 0 0 1.5616501e-37
-0.31878269 0.50797462 -0.77965635 0 0 0 1.5616501e-37
-0.32053781 0.49635506 -1.0009105 0 0 0 1.5616501e-37
-0.32382965 0.47310638 -1.2196896 0 0 0 1.5616501e-37
-0.26791525 0.53842831 -0.55985594 0 0 0 1.5616501e-37
-0.27073252 0.51879978 -0.78077656 0 0 0 1.5616501e-37
-0.27039874 0.52095604 -1.0034662 0 0 0 1.5616501e-37
-0.26616895 0.54684639 -1.2276728 0 0 0 1.5616501e-37
0.10345316 -0.62471199 -0.37622267 0 0 0 1.5616501e-37
-0.22062504 0.54315376 -0.56039107 0 0 0 1.5616501e-37
-0.22945523 0.48606586 -0.77915847 0 0 0 1.5616501e-37
-0.22879624 0.49022198 -1.0015495 0 0 0 1.5616501e-37
-0.21448982 0.57904339 -1.2315671 0 0 0 1.5616501e-37
0.13507485 -0.64957714 -0.37563217 0 0 0 1.5616501e-37
-0.17913079 0.55269623 -0.5611046 0 0 0 1.5616501e-37
-0.1859107 0.50941467 -0.78102547 0 0 0 1.5616501e-37
0.17666864 -0.44879818 -0.79536641 0 0 0 1.5616501e-37
-0.18365264 0.5233717 -1.0047442 0 0 0 1.5616501e-37
-0.17670703 0.56492805 -1.2307884 0 0 0 1.5616501e-37
0.1748929 -0.66402817 -0.37543532 0 0 0 1.5616501e-37
-0.12909794 0.57285309 -0.56235331 0 0 0 1.5616501e-37
-0.13701844 0.52366257 -0.78239459 0 0 0 1.5616501e-37
0.2023952 -0.53367901 -0.79005307 0 0 0 1.5616501e-37
-0.13569045 0.53168297 -1.0060221 0 0 0 1.5616501e-37
-0.13412356 0.53980541 -1.2290359 0 0 0 1.5616501e-37
0.25116158 -0.50859356 -0.38094679 0 0 0 1.5616501e-37
-0.082225561 0.57310867 -0.56271005 0 0 0 1.5616501e-37
0.24432969 -0.54039669 -0.58505905 0 0 0 1.5616501e-37
-0.084662437 0.55739784 -0.78500843 0 0 0 1.5616501e-37
0.24261832 -0.54836273 -0.78964436 0 0 0 1.5616501e-37
-0.083979607 0.56143093 -1.009057 0 0 0 1.5616501e-37
-0.085715532 0.54986286 -1.2307884 0 0 0 1.5616501e-37
0.28509283 -0.52411938 -0.38068435 0 0 0 1.5616501e-37
-0.031980276 0.63141155 -0.56565338 0 0 0 1.5616501e-37
0.27518272 -0.56955624 -0.58394831 0 0 0 1.5616501e-37
0.27472711 -0.57164574 -0.78855443 0 0 0 1.5616501e-37
0.33613634 -0.49032211 -0.38212782 0 0 0 1.5616501e-37
0.023138762 0.67655849 -0.56806159 0 0 0 1.5616501e-37
0.3126359 -0.5962038 -0.58303952 0 0 0 1.5616501e-37
0.023003817 0.67451286 -0.79334766 0 0 0 1.5616501e-37
0.3121767 -0.59827328 -0.7873283 0 0 0 1.5616501e-37
0.37909579 -0.49379444 -0.38232464 0 0 0 1.5616501e-37
0.35168672 -0.61518097 -0.58253461 0 0 0 1.5616501e-37
0.059714317 0.6152544 -0.79011154 0 0 0 1.5616501e-37
0.36001182 -0.57831097 -0.78937185 0 0 0 1.5616501e-37
0.42950773 -0.43761158 -0.38448986 0 0 0 1.5616501e-37
0.38966298 -0.61152744 -0.58314049 0 0 0 1.5616501e-37
0.09276104 0.57475853 -0.78799558 0 0 0 1.5616501e-37
0.38740683 -0.62137604 -0.78691953 0 0 0 1.5616501e-37
0.43221641 -0.61520767 -0.5834434 0 0 0 1.5616501e-37
0.44667339 -0.55315208 -0.79236913 0 0 0 1.5616501e-37
0.48766661 -0.56462669 -0.58657372 0 0 0 1.5616501e-37
0.1591084 0.42831039 -0.77978081 0 0 0 1.5616501e-37
0.49865723 -0.5182209 -0.79550266 0 0 0 1.5616501e-37
-0.32400548 0.62378502 -0.11583706 0 0 0 1.5616501e-37
-0.32696128 0.60397911 -0.33889654 0 0 0 1.5616501e-37
-0.28402555 0.57931423 -0.11548821 0 0 0 1.5616501e-37
-0.28644741 0.56348324 -0.33798218 0 0 0 1.5616501e-37
-0.24248838 0.54657269 -0.11524952 0 0 0 1.5616501e-37
-0.2446574 0.53273392 -0.33733678 0 0 0 1.5616501e-37
-0.20322204 0.54236698 -0.33776706 0 0 0 1.5616501e-37
0.19654965 -0.44907761 -0.93366128 0 0 0 1.5616501e-37
0.30253434 0.057204247 -1.1904825 0 0 0 1.5616501e-37
0.20774007 -0.60076141 -0.51365465 0 0 0 1.5616501e-37
0.22602773 -0.51576328 -0.72289979 0 0 0 1.5616501e-37
0.22506547 -0.52028656 -0.92854971 0 0 0 1.5616501e-37
0.22522712 -0.52049923 -1.133626 0 0 0 1.5616501e-37
0.23296142 -0.65520954 -0.51151407 0 0 0 1.5616501e-37
0.25784707 -0.5409584 -0.72177958 0 0 0 1.5616501e-37
0.25561261 -0.55130196 -0.92663288 0 0 0 1.5616501e-37
0.24989629 -0.57871723 -1.1285634 0 0 0 1.5616501e-37
0.27571225 -0.65634632 -0.5118708 0 0 0 1.5616501e-37
0.29372835 -0.57533741 -0.7201615 0 0 0 1.5616501e-37
0.2914629 -0.58564091 -0.92455631 0 0 0 1.5616501e-37
0.28565431 -0.61299515 -1.1260321 0 0 0 1.5616501e-37
0.32066798 -0.64789772 -0.51267356 0 0 0 1.5616501e-37
0.33287644 -0.59424305 -0.71953917 0 0 0 1.5616501e-37
0.33014083 -0.60647106 -0.92359787 0 0 0 1.5616501e-37
0.32249761 -0.64155579 -1.1240849 0 0 0 1.5616501e-37
0.35896111 -0.64218998 -0.51329792 0 0 0 1.5616501e-37
0.36780024 -0.60415936 -0.71941471 0 0 0 1.5616501e-37
0.36237884 -0.62804127 -0.92247975 0 0 0 1.5616501e-37
0.36168098 -0.63202286 -1.1258373 0 0 0 1.5616501e-37
0.40408754 -0.63407326 -0.51410061 0 0 0 1.5616501e-37
0.41036844 -0.60776138 -0.71978813 0 0 0 1.5616501e-37
0.41248155 -0.59860802 -0.9256745 0 0 0 1.5616501e-37
0.40503883 -0.63174057 -1.1268109 0 0 0 1.5616501e-37
0.45204711 -0.61446571 -0.5154385 0 0 0 1.5616501e-37
0.45978665 -0.58237457 -0.72202849 0 0 0 1.5616501e-37
0.45964527 -0.58297825 -0.92775106 0 0 0 1.5616501e-37
0.46026063 -0.58124161 -1.1328471 0 0 0 1.5616501e-37
0.4989152 -0.57421684 -0.51766831 0 0 0 1.5616501e-37
0.50258517 -0.55967426 -0.72401994 0 0 0 1.5616501e-37
0.50704932 -0.54092121 -0.9319042 0 0 0 1.5616501e-37
0.1046176 -0.39852238 -0.31431699 0 0 0 1.5616501e-37
0.12188482 -0.497859 -0.3117891 0 0 0 1.5616501e-37
0.16795611 -0.48486042 -0.31238073 0 0 0 1.5616501e-37
0.20448923 -0.48840046 -0.31248832 0 0 0 1.5616501e-37
0.24529839 -0.50114918 -0.31238073 0 0 0 1.5616501e-37
0.28647184 -0.51209068 -0.31232697 0 0 0 1.5616501e-37
0.33192778 -0.50366497 -0.31281102 0 0 0 1.5616501e-37
0.37109113 -0.4960289 -0.3132413 0 0 0 1.5616501e-37
