# .PCD v0.7 - Point Cloud Data file format
VERSION 0.7
FIELDS x y z normal_x normal_y normal_z curvature
SIZE 4 4 4 4 4 4 4
TYPE F F F F F F F
COUNT 1 1 1 1 1 1 1
WIDTH 857
HEIGHT 1
VIEWPOINT 0 0 0 1 0 0 0
POINTS 857
DATA ascii
-0.42915893 0.67939377 -0.47745842 0 0 0 2.2792377e-38
-0.41065884 0.67438221 -0.47764128 0 0 0 2.2792377e-38
-0.36315274 0.74320412 -0.39161244 0 0 0 2.2792377e-38
-0.39872158 0.65261555 -0.47617838 0 0 0 2.2792377e-38
-0.37269461 0.6740694 -0.38658607 0 0 0 2.2792377e-38
-0.38576639 0.64108229 -0.47562978 0 0 0 2.2792377e-38
-0.34381199 0.694767 -0.38880357 0 0 0 2.2792377e-38
-0.36442566 0.64329958 -0.47654408 0 0 0 2.2792377e-38
-0.32927084 0.68676662 -0.38865575 0 0 0 2.2792377e-38
-0.35153759 0.63167381 -0.47599551 0 0 0 2.2792377e-38
-0.3054322 0.69430399 -0.38983843 0 0 0 2.2792377e-38
-0.32866263 0.63742781 -0.47727555 0 0 0 2.2792377e-38
-0.28123021 0.70217323 -0.20434517 0 0 0 2.2792377e-38
-0.29216504 0.67592049 -0.38895142 0 0 0 2.2792377e-38
-0.3140775 0.62282801 -0.47654408 0 0 0 2.2792377e-38
-0.28512549 0.64970207 -0.20241007 0 0 0 2.2792377e-38
-0.26850224 0.68986082 -0.39057758 0 0 0 2.2792377e-38
-0.29901505 0.61658335 -0.47654408 0 0 0 2.2792377e-38
-0.25970602 0.6607275 -0.20318411 0 0 0 2.2792377e-38
-0.24283218 0.7008338 -0.29860431 0 0 0 2.2792377e-38
-0.24681854 0.69159603 -0.39131677 0 0 0 2.2792377e-38
-0.27837801 0.61658192 -0.47727555 0 0 0 2.2792377e-38
-0.25528693 0.62197113 -0.20186825 0 0 0 2.2792377e-38
-0.24606609 0.64366436 -0.29556078 0 0 0 2.2792377e-38
-0.23991871 0.65836096 -0.38924709 0 0 0 2.2792377e-38
-0.26316738 0.60366249 -0.47672695 0 0 0 2.2792377e-38
-0.24337769 0.60819483 -0.20155863 0 0 0 2.2792377e-38
-0.23093843 0.63720655 -0.29556078 0 0 0 2.2792377e-38
-0.21531367 0.67388153 -0.3910211 0 0 0 2.2792377e-38
-0.24267173 0.61007166 -0.47800702 0 0 0 2.2792377e-38
-0.22744966 0.59697866 -0.20140383 0 0 0 2.2792377e-38
-0.21887088 0.61678553 -0.29477173 0 0 0 2.2792377e-38
-0.1975565 0.66622972 -0.3910211 0 0 0 2.2792377e-38
-0.22593975 0.60069323 -0.47782415 0 0 0 2.2792377e-38
-0.4496702 0.65291834 -0.62732661 0 0 0 2.2792377e-38
-0.20917296 0.59120274 -0.20148124 0 0 0 2.2792377e-38
-0.21252728 0.58353519 -0.29319358 0 0 0 2.2792377e-38
-0.18622231 0.64389372 -0.38983843 0 0 0 2.2792377e-38
-0.39075315 0.75287724 -0.45426351 0 0 0 2.2792377e-38
-0.20206499 0.60767794 -0.47928706 0 0 0 2.2792377e-38
-0.43477464 0.63891172 -0.53508902 0 0 0 2.2792377e-38
-0.42268801 0.67020226 -0.63045967 0 0 0 2.2792377e-38
-0.42763329 0.65739965 -0.72037196 0 0 0 2.2792377e-38
-0.18533635 0.60474157 -0.20233268 0 0 0 2.2792377e-38
-0.19436455 0.58428001 -0.29364449 0 0 0 2.2792377e-38
-0.1541872 0.67556906 -0.39294294 0 0 0 2.2792377e-38
-0.4056828 0.66889906 -0.44706658 0 0 0 2.2792377e-38
-0.1782074 0.6211257 -0.48129857 0 0 0 2.2792377e-38
-0.40954435 0.65899467 -0.53797692 0 0 0 2.2792377e-38
-0.42117918 0.62915277 -0.6258806 0 0 0 2.2792377e-38
-0.4268533 0.61459923 -0.71486247 0 0 0 2.2792377e-38
-0.17271328 0.58602762 -0.20186825 0 0 0 2.2792377e-38
-0.17368484 0.58384752 -0.29409537 0 0 0 2.2792377e-38
-0.13561225 0.66951466 -0.39309075 0 0 0 2.2792377e-38
-0.38355875 0.67306805 -0.4480947 0 0 0 2.2792377e-38
-0.16064382 0.61333799 -0.48129857 0 0 0 2.2792377e-38
-0.39184034 0.65205479 -0.53797692 0 0 0 2.2792377e-38
-0.39412069 0.64626837 -0.62901366 0 0 0 2.2792377e-38
-0.4042275 0.62062407 -0.7167908 0 0 0 2.2792377e-38
-0.14297652 0.60555696 -0.2030293 0 0 0 2.2792377e-38
-0.12441921 0.64701986 -0.39190811 0 0 0 2.2792377e-38
-0.36654067 0.66418171 -0.44792333 0 0 0 2.2792377e-38
-0.1341188 0.62546444 -0.48331007 0 0 0 2.2792377e-38
-0.3734256 0.64689827 -0.53818321 0 0 0 2.2792377e-38
-0.38748467 0.61160517 -0.62539864 0 0 0 2.2792377e-38
-0.38959646 0.60630369 -0.71568888 0 0 0 2.2792377e-38
-0.10071635 0.6588316 -0.20558362 0 0 0 2.2792377e-38
-0.089501619 0.68377066 -0.39545611 0 0 0 2.2792377e-38
-0.3587805 0.63961363 -0.44620979 0 0 0 2.2792377e-38
-0.11575723 0.62590933 -0.48404154 0 0 0 2.2792377e-38
-0.36422336 0.62607384 -0.53653294 0 0 0 2.2792377e-38
-0.36431122 0.62585545 -0.62804961 0 0 0 2.2792377e-38
-0.34207559 0.68116808 -0.72780985 0 0 0 2.2792377e-38
-0.057585001 0.70648289 -0.39796931 0 0 0 2.2792377e-38
-0.33364773 0.65094852 -0.44792333 0 0 0 2.2792377e-38
-0.093198776 0.62875652 -0.48513871 0 0 0 2.2792377e-38
-0.33166504 0.65582895 -0.54065853 0 0 0 2.2792377e-38
-0.32281578 0.67761135 -0.63576168 0 0 0 2.2792377e-38
-0.32950985 0.66113377 -0.72588152 0 0 0 2.2792377e-38
-0.28282309 0.73179054 -0.1114488 0 0 0 2.2792377e-38
-0.024694204 0.73745537 -0.40107381 0 0 0 2.2792377e-38
-0.32605493 0.62632847 -0.44620979 0 0 0 2.2792377e-38
-0.069765806 0.6398983 -0.48696736 0 0 0 2.2792377e-38
-0.32630801 0.62571096 -0.53797692 0 0 0 2.2792377e-38
-0.31586492 0.65118647 -0.63311064 0 0 0 2.2792377e-38
-0.31582987 0.65127182 -0.72533059 0 0 0 2.2792377e-38
-0.28780913 0.66896534 -0.11018807 0 0 0 2.2792377e-38
-0.0024895668 0.73814249 -0.40181297 0 0 0 2.2792377e-38
-0.29703295 0.64669704 -0.44878012 0 0 0 2.2792377e-38
-0.039505243 0.65878677 -0.48971033 0 0 0 2.2792377e-38
-0.30339754 0.63133144 -0.5394209 0 0 0 2.2792377e-38
-0.30654776 0.62372589 -0.63045967 0 0 0 2.2792377e-38
-0.30118704 0.63666821 -0.72422868 0 0 0 2.2792377e-38
-0.29400015 0.60439825 -0.10888531 0 0 0 2.2792377e-38
0.023149729 0.74594975 -0.4031435 0 0 0 2.2792377e-38
-0.2793746 0.63934469 -0.44878012 0 0 0 2.2792377e-38
-0.0056824684 0.68472528 -0.49318475 0 0 0 2.2792377e-38
-0.28579569 0.62400246 -0.5394209 0 0 0 2.2792377e-38
-0.28974032 0.61457729 -0.63021863 0 0 0 2.2792377e-38
-0.3003906 0.58912945 -0.7181682 0 0 0 2.2792377e-38
-0.27104592 0.60992718 -0.10917948 0 0 0 2.2792377e-38
-0.26174355 0.63192797 -0.44878012 0 0 0 2.2792377e-38
0.031780958 0.71767521 -0.49739063 0 0 0 2.2792377e-38
-0.27751756 0.59462214 -0.53694552 0 0 0 2.2792377e-38
-0.28534436 0.57611132 -0.62612164 0 0 0 2.2792377e-38
-0.27908587 0.59091234 -0.71954554 0 0 0 2.2792377e-38
-0.2521019 0.61274385 -0.1093896 0 0 0 2.2792377e-38
-0.24430752 0.63101768 -0.44929418 0 0 0 2.2792377e-38
-0.25083661 0.61571074 -0.54003972 0 0 0 2.2792377e-38
-0.25484991 0.60630178 -0.63094163 0 0 0 2.2792377e-38
-0.25946093 0.59549093 -0.72119844 0 0 0 2.2792377e-38
-0.24485445 0.58135462 -0.10884329 0 0 0 2.2792377e-38
-0.22434163 0.62896252 -0.44980824 0 0 0 2.2792377e-38
-0.24352574 0.5844388 -0.53735811 0 0 0 2.2792377e-38
-0.25383854 0.56050444 -0.6258806 0 0 0 2.2792377e-38
-0.24512601 0.58072472 -0.72009653 0 0 0 2.2792377e-38
-0.21626472 0.59948015 -0.10943163 0 0 0 2.2792377e-38
-0.20277286 0.63047934 -0.45066503 0 0 0 2.2792377e-38
-0.21736336 0.59695578 -0.53962713 0 0 0 2.2792377e-38
-0.21985769 0.59122419 -0.63094163 0 0 0 2.2792377e-38
-0.21980476 0.59134626 -0.72285128 0 0 0 2.2792377e-38
-0.21333194 0.5654645 -0.10880126 0 0 0 2.2792377e-38
-0.1836822 0.63300848 -0.45152181 0 0 0 2.2792377e-38
-0.20078349 0.59405088 -0.54003972 0 0 0 2.2792377e-38
-0.20649123 0.58104849 -0.63045967 0 0 0 2.2792377e-38
-0.21041536 0.57210875 -0.72092295 0 0 0 2.2792377e-38
-0.43969917 0.6097579 -0.80419266 0 0 0 2.2792377e-38
-0.17246962 0.61081696 -0.11001997 0 0 0 2.2792377e-38
-0.16607499 0.6252408 -0.45152181 0 0 0 2.2792377e-38
-0.17606235 0.60271358 -0.54189622 0 0 0 2.2792377e-38
-0.17861319 0.59696007 -0.63359267 0 0 0 2.2792377e-38
-0.18981957 0.57168341 -0.72202486 0 0 0 2.2792377e-38
-0.43803358 0.56245518 -0.79738009 0 0 0 2.2792377e-38
-0.44681454 0.53980207 -0.88292021 0 0 0 2.2792377e-38
-0.42534578 0.59459209 -0.98346108 0 0 0 2.2792377e-38
-0.46087885 0.50366831 -1.0531279 0 0 0 2.2792377e-38
-0.14765191 0.62603283 -0.11052427 0 0 0 2.2792377e-38
-0.14449906 0.6330843 -0.45289266 0 0 0 2.2792377e-38
-0.15619206 0.60693216 -0.54313391 0 0 0 2.2792377e-38
-0.15714955 0.60479069 -0.6355207 0 0 0 2.2792377e-38
-0.16117287 0.59579182 -0.72670794 0 0 0 2.2792377e-38
-0.42316031 0.55660057 -0.79738009 0 0 0 2.2792377e-38
-0.43346143 0.53031111 -0.88223308 0 0 0 2.2792377e-38
-0.44215333 0.50833225 -0.96686894 0 0 0 2.2792377e-38
-0.44834983 0.49242496 -1.051897 0 0 0 2.2792377e-38
-0.32148457 0.76124287 -0.36294213 0 0 0 2.2792377e-38
-0.12607169 0.62698936 -0.45306402 0 0 0 2.2792377e-38
-0.13458729 0.6081295 -0.54416531 0 0 0 2.2792377e-38
-0.14291406 0.58968782 -0.63455665 0 0 0 2.2792377e-38
-0.14288712 0.58974743 -0.72698343 0 0 0 2.2792377e-38
-0.39923143 0.5662241 -0.80016708 0 0 0 2.2792377e-38
-0.41476631 0.52711868 -0.88292021 0 0 0 2.2792377e-38
-0.42500126 0.50151253 -0.96686894 0 0 0 2.2792377e-38
-0.42980289 0.48926353 -1.0527176 0 0 0 2.2792377e-38
-0.31536281 0.72437763 -0.3607623 0 0 0 2.2792377e-38
-0.099393606 0.63895464 -0.45494893 0 0 0 2.2792377e-38
-0.10881877 0.61828279 -0.54622811 0 0 0 2.2792377e-38
-0.11558199 0.60344934 -0.63744867 0 0 0 2.2792377e-38
-0.11968613 0.59444761 -0.72891176 0 0 0 2.2792377e-38
-0.38630784 0.54825497 -0.79830909 0 0 0 2.2792377e-38
-0.37909603 0.56586981 -0.89150894 0 0 0 2.2792377e-38
-0.41375971 0.48006153 -0.96385217 0 0 0 2.2792377e-38
-0.4083215 0.49328852 -1.0551791 0 0 0 2.2792377e-38
-0.29847527 0.72183228 -0.36103478 0 0 0 2.2792377e-38
-0.070964336 0.66100359 -0.4576906 0 0 0 2.2792377e-38
-0.08795476 0.62404633 -0.54767203 0 0 0 2.2792377e-38
-0.086482763 0.62724829 -0.64154571 0 0 0 2.2792377e-38
-0.09478426 0.60919094 -0.73221749 0 0 0 2.2792377e-38
-0.33195186 0.63921309 -0.81472117 0 0 0 2.2792377e-38
-0.34561944 0.605443 -0.90009761 0 0 0 2.2792377e-38
-0.36281693 0.5632534 -0.98232979 0 0 0 2.2792377e-38
-0.39366567 0.4873414 -1.0551791 0 0 0 2.2792377e-38
-0.305866 0.65299463 -0.17138012 0 0 0 2.2792377e-38
-0.27902198 0.71817493 -0.36130723 0 0 0 2.2792377e-38
-0.054094076 0.65101528 -0.45751926 0 0 0 2.2792377e-38
-0.070381165 0.6159277 -0.54767203 0 0 0 2.2792377e-38
-0.073912859 0.60831928 -0.6400997 0 0 0 2.2792377e-38
-0.067256451 0.62265921 -0.73552322 0 0 0 2.2792377e-38
-0.32861841 0.59727621 -0.80883759 0 0 0 2.2792377e-38
-0.32811201 0.59826899 -0.90009761 0 0 0 2.2792377e-38
-0.33349514 0.58520031 -0.98836327 0 0 0 2.2792377e-38
-0.35869753 0.52378225 -1.0650253 0 0 0 2.2792377e-38
-0.24968576 0.7381897 -0.080343701 0 0 0 2.2792377e-38
-0.29048848 0.64013815 -0.17118329 0 0 0 2.2792377e-38
-0.27508307 0.67715883 -0.26566973 0 0 0 2.2792377e-38
-0.26416826 0.70338726 -0.3607623 0 0 0 2.2792377e-38
-0.012745142 0.69329357 -0.4623172 0 0 0 2.2792377e-38
-0.033420801 0.64917564 -0.5524165 0 0 0 2.2792377e-38
0.021116018 0.76554632 -0.6622718 0 0 0 2.2792377e-38
-0.30127156 0.61375475 -0.81286323 0 0 0 2.2792377e-38
-0.3182019 0.57284117 -0.89666218 0 0 0 2.2792377e-38
-0.31681681 0.57616901 -0.98798621 0 0 0 2.2792377e-38
-0.34073722 0.51846409 -1.0654355 0 0 0 2.2792377e-38
-0.268121 0.64402056 -0.078924634 0 0 0 2.2792377e-38
-0.27440381 0.62907696 -0.17105205 0 0 0 2.2792377e-38
-0.26118422 0.66051912 -0.26516482 0 0 0 2.2792377e-38
-0.24784923 0.69223547 -0.36048982 0 0 0 2.2792377e-38
0.0050821304 0.68489933 -0.4623172 0 0 0 2.2792377e-38
0.03018713 0.73796129 -0.5635556 0 0 0 2.2792377e-38
0.045151472 0.76959038 -0.66395885 0 0 0 2.2792377e-38
-0.28679752 0.59913301 -0.81162459 0 0 0 2.2792377e-38
-0.29470432 0.58009672 -0.89941055 0 0 0 2.2792377e-38
-0.29256463 0.58518457 -0.99138004 0 0 0 2.2792377e-38
-0.32354867 0.51127291 -1.0654355 0 0 0 2.2792377e-38
-0.26236248 0.61553955 -0.078562312 0 0 0 2.2792377e-38
-0.26712751 0.60430527 -0.17039594 0 0 0 2.2792377e-38
-0.26082277 0.61916971 -0.26324627 0 0 0 2.2792377e-38
-0.23568559 0.67843485 -0.35994485 0 0 0 2.2792377e-38
0.041784286 0.72261524 -0.4666011 0 0 0 2.2792377e-38
0.1402328 0.40228462 -0.47599551 0 0 0 2.2792377e-38
0.047322273 0.73422623 -0.56396812 0 0 0 2.2792377e-38
0.052980423 0.7460885 -0.66178983 0 0 0 2.2792377e-38
-0.27643943 0.58188915 -0.80976659 0 0 0 2.2792377e-38
-0.28824019 0.55383968 -0.89563149 0 0 0 2.2792377e-38
-0.28145599 0.56983232 -0.98949456 0 0 0 2.2792377e-38
-0.30730784 0.50866318 -1.066256 0 0 0 2.2792377e-38
-0.24875665 0.5988698 -0.078411348 0 0 0 2.2792377e-38
-0.24726295 0.60235596 -0.17059277 0 0 0 2.2792377e-38
-0.24483895 0.60801315 -0.26304433 0 0 0 2.2792377e-38
-0.21398234 0.68002796 -0.36062604 0 0 0 2.2792377e-38
0.14076519 0.36308956 -0.38170755 0 0 0 2.2792377e-38
0.078244209 0.7524972 -0.56706232 0 0 0 2.2792377e-38
0.077029705 0.74997473 -0.66347682 0 0 0 2.2792377e-38
-0.25434923 0.58535862 -0.81162459 0 0 0 2.2792377e-38
-0.26626587 0.55732203 -0.8976928 0 0 0 2.2792377e-38
-0.26175857 0.56783962 -0.99062586 0 0 0 2.2792377e-38
-0.28630018 0.51034546 -1.0683073 0 0 0 2.2792377e-38
-0.23376989 0.59242058 -0.078411348 0 0 0 2.2792377e-38
-0.24495387 0.56654406 -0.16954297 0 0 0 2.2792377e-38
-0.2440877 0.56854773 -0.26122674 0 0 0 2.2792377e-38
-0.19557428 0.68079567 -0.36117101 0 0 0 2.2792377e-38
0.18631148 0.4133172 -0.38658607 0 0 0 2.2792377e-38
-0.43208587 0.71147251 -0.51151413 0 0 0 2.2792377e-38
0.084687233 0.72642565 -0.66130781 0 0 0 2.2792377e-38
0.058549404 0.67257309 -0.74929708 0 0 0 2.2792377e-38
-0.24410868 0.56804466 -0.80976659 0 0 0 2.2792377e-38
-0.25062776 0.55273628 -0.89803636 0 0 0 2.2792377e-38
-0.24531054 0.56503677 -0.99138004 0 0 0 2.2792377e-38
-0.26071715 0.52916956 -1.0740509 0 0 0 2.2792377e-38
-0.21311069 0.59216738 -0.078532122 0 0 0 2.2792377e-38
-0.20759583 0.60480022 -0.17118329 0 0 0 2.2792377e-38
-0.21632719 0.58480024 -0.26253945 0 0 0 2.2792377e-38
-0.17859006 0.67124271 -0.36103478 0 0 0 2.2792377e-38
-0.43494272 0.65075016 -0.50586742 0 0 0 2.2792377e-38
0.10263515 0.71767426 -0.66130781 0 0 0 2.2792377e-38
-0.22515798 0.56412077 -0.81038588 0 0 0 2.2792377e-38
-0.23410249 0.54340887 -0.8976928 0 0 0 2.2792377e-38
-0.22402239 0.5664959 -0.99326551 0 0 0 2.2792377e-38
-0.23957348 0.53065443 -1.0761021 0 0 0 2.2792377e-38
-0.18597126 0.60646582 -0.078894436 0 0 0 2.2792377e-38
-0.19896293 0.57700157 -0.17046155 0 0 0 2.2792377e-38
-0.19809031 0.57897997 -0.26264042 0 0 0 2.2792377e-38
-0.1552074 0.67623615 -0.36198846 0 0 0 2.2792377e-38
-0.40428936 0.67747688 -0.41723239 0 0 0 2.2792377e-38
-0.41582382 0.64761305 -0.50625688 0 0 0 2.2792377e-38
0.10823083 0.68393993 -0.65793377 0 0 0 2.2792377e-38
-0.20222211 0.56916094 -0.81255352 0 0 0 2.2792377e-38
-0.21284842 0.54484034 -0.89941055 0 0 0 2.2792377e-38
-0.20111084 0.57145643 -0.99590516 0 0 0 2.2792377e-38
-0.20417404 0.56428623 -1.085538 0 0 0 2.2792377e-38
-0.16039777 0.6235733 -0.079286948 0 0 0 2.2792377e-38
-0.17673516 0.58683395 -0.17105205 0 0 0 2.2792377e-38
-0.17099237 0.59974861 -0.26415506 0 0 0 2.2792377e-38
-0.12619519 0.70048714 -0.36430451 0 0 0 2.2792377e-38
-0.39488971 0.65667248 -0.4159545 0 0 0 2.2792377e-38
-0.40213966 0.63798332 -0.50586742 0 0 0 2.2792377e-38
0.11816955 0.66570663 -0.65648776 0 0 0 2.2792377e-38
-0.18652606 0.56437111 -0.81286323 0 0 0 2.2792377e-38
-0.19402814 0.54727983 -0.90112829 0 0 0 2.2792377e-38
-0.18700862 0.56306314 -0.9955281 0 0 0 2.2792377e-38
-0.19486475 0.54517746 -1.0826663 0 0 0 2.2792377e-38
-0.39870834 0.64399433 -1.1758803 0 0 0 2.2792377e-38
-0.4130578 0.60702419 -1.25691 0 0 0 2.2792377e-38
-0.14947033 0.60092306 -0.17183942 0 0 0 2.2792377e-38
-0.15187049 0.59557915 -0.26435703 0 0 0 2.2792377e-38
-0.09934926 0.71253109 -0.36580315 0 0 0 2.2792377e-38
-0.37645817 0.6515317 -0.41611424 0 0 0 2.2792377e-38
-0.3801024 0.64211512 -0.50703573 0 0 0 2.2792377e-38
0.11270046 0.61071587 -0.65022177 0 0 0 2.2792377e-38
-0.16431308 0.56742907 -0.81472117 0 0 0 2.2792377e-38
-0.17189145 0.55033445 -0.9031896 0 0 0 2.2792377e-38
-0.16804814 0.5588913 -0.99628228 0 0 0 2.2792377e-38
-0.15993428 0.57673502 -1.091692 0 0 0 2.2792377e-38
-0.40483797 0.57720709 -1.1612648 0 0 0 2.2792377e-38
-0.40631139 0.57301855 -1.249782 0 0 0 2.2792377e-38
-0.10143471 0.66038799 -0.17426708 0 0 0 2.2792377e-38
-0.071561813 0.72626066 -0.36743802 0 0 0 2.2792377e-38
-0.36323941 0.6333704 -0.41515583 0 0 0 2.2792377e-38
-0.36765313 0.62213755 -0.50567269 0 0 0 2.2792377e-38
0.11944103 0.58061695 -0.64732975 0 0 0 2.2792377e-38
-0.143682 0.56678867 -0.81595981 0 0 0 2.2792377e-38
-0.15051818 0.55149603 -0.90490729 0 0 0 2.2792377e-38
-0.13935447 0.57610941 -1.0015615 0 0 0 2.2792377e-38
-0.14334202 0.56709766 -1.0912817 0 0 0 2.2792377e-38
-0.38743377 0.57025051 -1.1612648 0 0 0 2.2792377e-38
-0.39471781 0.55164623 -1.2459803 0 0 0 2.2792377e-38
-0.033771038 0.76824903 -0.37111649 0 0 0 2.2792377e-38
-0.33840978 0.65130043 -0.41723239 0 0 0 2.2792377e-38
-0.34212601 0.64188862 -0.50839871 0 0 0 2.2792377e-38
0.097298861 0.50053883 -0.63744867 0 0 0 2.2792377e-38
-0.12633109 0.56540012 -0.81688881 0 0 0 2.2792377e-38
-0.12830544 0.56086445 -0.90799928 0 0 0 2.2792377e-38
-0.11790466 0.58360624 -1.0045784 0 0 0 2.2792377e-38
-0.11624312 0.58701944 -1.0974355 0 0 0 2.2792377e-38
-0.37986505 0.54616261 -1.1568359 0 0 0 2.2792377e-38
-0.38498926 0.5330534 -1.2426538 0 0 0 2.2792377e-38
-0.01650548 0.75811958 -0.37098026 0 0 0 2.2792377e-38
-0.32904518 0.623806 -0.41547528 0 0 0 2.2792377e-38
-0.33806384 0.60154533 -0.50489384 0 0 0 2.2792377e-38
0.098027468 0.45998526 -0.63311064 0 0 0 2.2792377e-38
-0.099031925 0.57894897 -0.82060474 0 0 0 2.2792377e-38
-0.09692049 0.58330297 -0.91383958 0 0 0 2.2792377e-38
-0.084009647 0.61126137 -1.0121202 0 0 0 2.2792377e-38
-0.099625349 0.57722759 -1.0970253 0 0 0 2.2792377e-38
-0.36035621 0.54452896 -1.1581646 0 0 0 2.2792377e-38
-0.36627364 0.52961969 -1.2436043 0 0 0 2.2792377e-38
-0.27585816 0.70287323 -0.23564431 0 0 0 2.2792377e-38
-0.26394081 0.73143148 -0.33108014 0 0 0 2.2792377e-38
-0.30308557 0.63683462 -0.41723239 0 0 0 2.2792377e-38
-0.30915403 0.62193251 -0.50781459 0 0 0 2.2792377e-38
0.1278379 0.47583914 -0.63648468 0 0 0 2.2792377e-38
0.10314655 0.4284277 -0.72174937 0 0 0 2.2792377e-38
-0.057410717 0.62280512 -0.82958496 0 0 0 2.2792377e-38
-0.055351257 0.62700367 -0.9238025 0 0 0 2.2792377e-38
-0.066482782 0.60312843 -1.0121202 0 0 0 2.2792377e-38
-0.076432705 0.5815711 -1.099897 0 0 0 2.2792377e-38
-0.35351765 0.51218176 -1.1519641 0 0 0 2.2792377e-38
-0.34978735 0.52072716 -1.2431291 0 0 0 2.2792377e-38
-0.25130773 0.71863413 -0.23671462 0 0 0 2.2792377e-38
-0.24930668 0.72318697 -0.33095565 0 0 0 2.2792377e-38
-0.28644323 0.63423491 -0.41755188 0 0 0 2.2792377e-38
-0.30099666 0.59914112 -0.50606215 0 0 0 2.2792377e-38
0.13983607 0.46325254 -0.54313391 0 0 0 2.2792377e-38
0.14243627 0.46820736 -0.63648468 0 0 0 2.2792377e-38
-0.018060684 0.66720772 -1.0272039 0 0 0 2.2792377e-38
-0.036518097 0.62772512 -1.1122048 0 0 0 2.2792377e-38
-0.331285 0.52405834 -1.1563929 0 0 0 2.2792377e-38
-0.33504558 0.51459551 -1.2431291 0 0 0 2.2792377e-38
-0.25668049 0.65588522 -0.23403886 0 0 0 2.2792377e-38
-0.23447132 0.7083025 -0.33045781 0 0 0 2.2792377e-38
-0.25953317 0.64888668 -0.4194687 0 0 0 2.2792377e-38
-0.28428626 0.58996964 -0.50586742 0 0 0 2.2792377e-38
0.14006329 0.42265463 -0.5394209 0 0 0 2.2792377e-38
-0.30952585 0.52761364 -1.1590503 0 0 0 2.2792377e-38
-0.31333852 0.51812267 -1.2459803 0 0 0 2.2792377e-38
-0.25073719 0.62081337 -0.23270099 0 0 0 2.2792377e-38
-0.21971798 0.69337559 -0.32995993 0 0 0 2.2792377e-38
-0.2426486 0.63956308 -0.41930896 0 0 0 2.2792377e-38
0.15346742 0.40728045 -0.44672385 0 0 0 2.2792377e-38
-0.26137376 0.59538937 -0.5072304 0 0 0 2.2792377e-38
-0.29765868 0.50774956 -1.1559501 0 0 0 2.2792377e-38
-0.28776932 0.53048849 -1.2512075 0 0 0 2.2792377e-38
-0.23725939 0.6106987 -0.23252261 0 0 0 2.2792377e-38
-0.20995235 0.67399693 -0.32908866 0 0 0 2.2792377e-38
-0.22595954 0.63675737 -0.41962844 0 0 0 2.2792377e-38
-0.24639773 0.58897972 -0.5072304 0 0 0 2.2792377e-38
-0.2606113 0.55341244 -1.168794 0 0 0 2.2792377e-38
-0.19623446 0.70262575 -1.2987278 0 0 0 2.2792377e-38
-0.21973348 0.60312796 -0.23252261 0 0 0 2.2792377e-38
-0.18821955 0.67548037 -0.32971099 0 0 0 2.2792377e-38
-0.20516229 0.63645935 -0.4202674 0 0 0 2.2792377e-38
-0.2218163 0.59787464 -0.50898284 0 0 0 2.2792377e-38
-0.18811846 0.67293406 -1.2002394 0 0 0 2.2792377e-38
-0.18688774 0.67530394 -1.2935005 0 0 0 2.2792377e-38
-0.20865488 0.58085394 -0.23180908 0 0 0 2.2792377e-38
-0.18248224 0.64030838 -0.32784399 0 0 0 2.2792377e-38
-0.17793393 0.65067959 -0.42218423 0 0 0 2.2792377e-38
-0.20034027 0.59936142 -0.50995642 0 0 0 2.2792377e-38
-0.16879749 0.66875458 -1.2011251 0 0 0 2.2792377e-38
-0.17146754 0.66221094 -1.2920749 0 0 0 2.2792377e-38
-0.19130039 0.57976055 -0.23207664 0 0 0 2.2792377e-38
-0.16655803 0.63547611 -0.32796848 0 0 0 2.2792377e-38
-0.16278458 0.64400768 -0.42218423 0 0 0 2.2792377e-38
-0.17407942 0.61824512 -0.51268244 0 0 0 2.2792377e-38
-0.16464162 0.63708448 -1.1949247 0 0 0 2.2792377e-38
-0.15628195 0.65551853 -1.2920749 0 0 0 2.2792377e-38
-0.16003561 0.6030345 -0.23359291 0 0 0 2.2792377e-38
-0.12044764 0.69143534 -0.3323248 0 0 0 2.2792377e-38
-0.13050151 0.66892815 -0.4250595 0 0 0 2.2792377e-38
-0.14759588 0.63043404 -0.51482427 0 0 0 2.2792377e-38
-0.14304042 0.63815022 -1.1971391 0 0 0 2.2792377e-38
-0.14176345 0.64055586 -1.2901741 0 0 0 2.2792377e-38
-0.14500308 0.58971643 -0.23332533 0 0 0 2.2792377e-38
-0.088672876 0.71436787 -0.33444071 0 0 0 2.2792377e-38
-0.10948372 0.66823435 -0.42569843 0 0 0 2.2792377e-38
-0.12917972 0.62434864 -0.515019 0 0 0 2.2792377e-38
-0.12380981 0.63378906 -1.1980249 0 0 0 2.2792377e-38
-0.11773467 0.64680004 -1.2939757 0 0 0 2.2792377e-38
-0.088501453 0.67404985 -0.42681661 0 0 0 2.2792377e-38
-0.10504723 0.63745356 -0.51716083 0 0 0 2.2792377e-38
-0.10952187 0.62517166 -1.197582 0 0 0 2.2792377e-38
-0.10742688 0.62932968 -1.2911245 0 0 0 2.2792377e-38
-0.30789042 0.70019197 -0.14161475 0 0 0 2.2792377e-38
-0.062423229 0.68404961 -0.42841396 0 0 0 2.2792377e-38
-0.088254929 0.62758875 -0.5169661 0 0 0 2.2792377e-38
-0.088686228 0.62422085 -1.1993536 0 0 0 2.2792377e-38
-0.084154606 0.63363934 -1.2944509 0 0 0 2.2792377e-38
-0.3006922 0.66699696 -0.14086176 0 0 0 2.2792377e-38
-0.040436029 0.68488026 -0.42921266 0 0 0 2.2792377e-38
-0.06396842 0.63391781 -0.51852387 0 0 0 2.2792377e-38
-0.062902451 0.63379669 -1.2037826 0 0 0 2.2792377e-38
-0.061639071 0.63608027 -1.2973021 0 0 0 2.2792377e-38
-0.29162693 0.64593983 -0.14043149 0 0 0 2.2792377e-38
-0.01082468 0.70847702 -0.43192819 0 0 0 2.2792377e-38
0.24871039 -0.19815826 -0.43338814 0 0 0 2.2792377e-38
-0.030323267 0.66655588 -0.52280754 0 0 0 2.2792377e-38
-0.047806978 0.62676334 -1.2037826 0 0 0 2.2792377e-38
-0.041596413 0.63960075 -1.3001534 0 0 0 2.2792377e-38
-0.27397132 0.63856792 -0.14043149 0 0 0 2.2792377e-38
0.013866425 0.71449804 -0.43320608 0 0 0 2.2792377e-38
0.25463581 -0.22089672 -0.43192524 0 0 0 2.2792377e-38
0.028193712 0.74462652 -0.53215384 0 0 0 2.2792377e-38
-0.014397621 0.6520052 -1.2121974 0 0 0 2.2792377e-38
-0.22836661 0.69711065 -0.048582163 0 0 0 2.2792377e-38
-0.26180649 0.61824656 -0.140055 0 0 0 2.2792377e-38
0.054927349 0.75459766 -0.43751895 0 0 0 2.2792377e-38
0.25283217 -0.25531507 -0.42918226 0 0 0 2.2792377e-38
0.056484699 0.75764418 -0.53449041 0 0 0 2.2792377e-38
-0.21857667 0.67772532 -0.04845364 0 0 0 2.2792377e-38
-0.25697994 0.58794212 -0.13935581 0 0 0 2.2792377e-38
0.13177037 0.3544817 -0.35081682 0 0 0 2.2792377e-38
0.2492106 -0.28767061 -0.34430552 0 0 0 2.2792377e-38
0.27821851 -0.24333692 -0.43137664 0 0 0 2.2792377e-38
-0.20635796 0.65723419 -0.048325114 0 0 0 2.2792377e-38
-0.23160768 0.59879637 -0.13989365 0 0 0 2.2792377e-38
0.16732574 0.38066959 -0.35354158 0 0 0 2.2792377e-38
0.26783323 -0.29035854 -0.34489685 0 0 0 2.2792377e-38
0.30576921 -0.23284078 -0.43357101 0 0 0 2.2792377e-38
-0.18879104 0.65615129 -0.048380196 0 0 0 2.2792377e-38
-0.21182871 0.6032896 -0.14021635 0 0 0 2.2792377e-38
0.26788664 -0.31670332 -0.34327069 0 0 0 2.2792377e-38
0.32915807 -0.224437 -0.43539965 0 0 0 2.2792377e-38
-0.19674659 0.59013605 -0.140055 0 0 0 2.2792377e-38
0.22949958 -0.40471005 -0.2561076 0 0 0 2.2792377e-38
0.2110045 -0.43219829 -0.33380932 0 0 0 2.2792377e-38
0.35691333 -0.21421766 -0.43759403 0 0 0 2.2792377e-38
-0.16630173 0.61164665 -0.14091556 0 0 0 2.2792377e-38
0.19751024 -0.48185182 -0.25148591 0 0 0 2.2792377e-38
0.19793224 -0.48108697 -0.33026129 0 0 0 2.2792377e-38
0.35136151 -0.2536788 -0.43430248 0 0 0 2.2792377e-38
-0.15122938 0.59834385 -0.14075419 0 0 0 2.2792377e-38
0.19193959 -0.51907897 -0.24956962 0 0 0 2.2792377e-38
0.20135951 -0.50508952 -0.3289308 0 0 0 2.2792377e-38
0.36011553 -0.27163601 -0.43338814 0 0 0 2.2792377e-38
0.23374009 -0.48261118 -0.17330638 0 0 0 2.2792377e-38
0.20905232 -0.51866913 -0.25013325 0 0 0 2.2792377e-38
0.21625614 -0.50801015 -0.32937428 0 0 0 2.2792377e-38
0.35098743 -0.31121802 -0.42991373 0 0 0 2.2792377e-38
0.22682428 -0.52150893 -0.1719131 0 0 0 2.2792377e-38
0.21336293 -0.54101634 -0.24923146 0 0 0 2.2792377e-38
0.22628045 -0.52216101 -0.3289308 0 0 0 2.2792377e-38
0.30518055 -0.40781856 -0.42022192 0 0 0 2.2792377e-38
0.23714876 -0.53108811 -0.17183571 0 0 0 2.2792377e-38
0.22248793 -0.55219173 -0.24900602 0 0 0 2.2792377e-38
0.2377429 -0.53009701 -0.3289308 0 0 0 2.2792377e-38
0.24768901 -0.5157795 -0.40906721 0 0 0 2.2792377e-38
0.24017048 -0.55512452 -0.17113908 0 0 0 2.2792377e-38
0.23460317 -0.56307578 -0.24889329 0 0 0 2.2792377e-38
0.25108433 -0.53940153 -0.3289308 0 0 0 2.2792377e-38
0.22224617 -0.58059144 -0.40284982 0 0 0 2.2792377e-38
0.26294303 -0.15939856 -0.49362683 0 0 0 2.2792377e-38
0.24650669 -0.57423496 -0.17067465 0 0 0 2.2792377e-38
0.24206758 -0.58052611 -0.24832967 0 0 0 2.2792377e-38
0.26554155 -0.54712486 -0.32907861 0 0 0 2.2792377e-38
0.24458838 -0.57682037 -0.40431273 0 0 0 2.2792377e-38
0.27979231 -0.16544962 -0.49403939 0 0 0 2.2792377e-38
0.26822186 -0.56757092 -0.17137128 0 0 0 2.2792377e-38
0.25334668 -0.58851171 -0.24832967 0 0 0 2.2792377e-38
0.28270078 -0.54705405 -0.3298178 0 0 0 2.2792377e-38
0.25773787 -0.22713804 -0.40422767 0 0 0 2.2792377e-38
0.27317929 -0.56045842 -0.40705571 0 0 0 2.2792377e-38
0.13662434 0.42566919 -0.50898284 0 0 0 2.2792377e-38
0.27617574 -0.19861579 -0.49094519 0 0 0 2.2792377e-38
0.27328253 -0.58836198 -0.17082946 0 0 0 2.2792377e-38
0.2676363 -0.5962491 -0.2484424 0 0 0 2.2792377e-38
0.29249668 -0.56138849 -0.32937428 0 0 0 2.2792377e-38
0.1440866 0.39931965 -0.41531554 0 0 0 2.2792377e-38
0.267838 -0.24319553 -0.40354225 0 0 0 2.2792377e-38
0.27365708 -0.58770633 -0.4050442 0 0 0 2.2792377e-38
0.2918179 -0.20639658 -0.49115148 0 0 0 2.2792377e-38
0.29576445 -0.58483005 -0.17144869 0 0 0 2.2792377e-38
0.28307176 -0.60242391 -0.24866784 0 0 0 2.2792377e-38
0.16014743 0.38907337 -0.32311428 0 0 0 2.2792377e-38
0.31972623 -0.55148292 -0.3311483 0 0 0 2.2792377e-38
0.15800261 0.38508511 -0.41483635 0 0 0 2.2792377e-38
0.27785492 -0.25927401 -0.40285683 0 0 0 2.2792377e-38
0.27513504 -0.61329389 -0.40321556 0 0 0 2.2792377e-38
0.31945181 -0.19594884 -0.49362683 0 0 0 2.2792377e-38
0.31948161 -0.5797987 -0.17214532 0 0 0 2.2792377e-38
0.29497361 -0.61350894 -0.24855512 0 0 0 2.2792377e-38
0.15686941 0.34320164 -0.32050049 0 0 0 2.2792377e-38
0.33650708 -0.55624771 -0.33159178 0 0 0 2.2792377e-38
0.30318975 -0.25211287 -0.4045704 0 0 0 2.2792377e-38
0.28817129 -0.62273479 -0.40321556 0 0 0 2.2792377e-38
0.31534672 -0.23375249 -0.49012008 0 0 0 2.2792377e-38
0.20262408 -0.40399337 -0.6289137 0 0 0 2.2792377e-38
0.3260417 -0.59447837 -0.17183571 0 0 0 2.2792377e-38
0.31322455 -0.61199212 -0.24923146 0 0 0 2.2792377e-38
0.20072937 0.38977766 -0.32435894 0 0 0 2.2792377e-38
0.35846329 -0.55004406 -0.33292231 0 0 0 2.2792377e-38
0.31660557 -0.25863409 -0.40474176 0 0 0 2.2792377e-38
0.29226065 -0.64050817 -0.40211836 0 0 0 2.2792377e-38
0.32992196 -0.23865962 -0.49053264 0 0 0 2.2792377e-38
0.15841794 -0.49591613 -0.61486435 0 0 0 2.2792377e-38
0.32982087 -0.61675143 -0.24956962 0 0 0 2.2792377e-38
0.41316319 -0.50360727 -0.3380965 0 0 0 2.2792377e-38
0.31938171 -0.63077688 -0.40431273 0 0 0 2.2792377e-38
0.32879734 -0.27142 -0.48764473 0 0 0 2.2792377e-38
0.21844625 -0.43563986 -0.54683214 0 0 0 2.2792377e-38
0.1553123 -0.52959299 -0.6107322 0 0 0 2.2792377e-38
0.37312174 -0.5817225 -0.25261316 0 0 0 2.2792377e-38
0.4009068 -0.54416084 -0.33513981 0 0 0 2.2792377e-38
0.22931027 -0.44483829 -0.38726348 0 0 0 2.2792377e-38
0.33999944 -0.62621164 -0.40577567 0 0 0 2.2792377e-38
0.32209682 -0.30769014 -0.48413798 0 0 0 2.2792377e-38
0.17455387 -0.525774 -0.53478211 0 0 0 2.2792377e-38
0.16342187 -0.54222846 -0.60990578 0 0 0 2.2792377e-38
0.23398328 -0.46728301 -0.38589263 0 0 0 2.2792377e-38
0.37088203 -0.6119678 -0.40851861 0 0 0 2.2792377e-38
0.27349067 -0.40934563 -0.47258633 0 0 0 2.2792377e-38
0.17560768 -0.55289078 -0.53213108 0 0 0 2.2792377e-38
0.17560339 -0.55289698 -0.60963029 0 0 0 2.2792377e-38
0.23852587 -0.48971152 -0.38452181 0 0 0 2.2792377e-38
0.41628981 -0.57881784 -0.41345593 0 0 0 2.2792377e-38
0.22192168 -0.51387072 -0.4606221 0 0 0 2.2792377e-38
0.1674993 -0.59305573 -0.52755207 0 0 0 2.2792377e-38
0.17988563 -0.57503366 -0.60742646 0 0 0 2.2792377e-38
0.25802708 -0.48621583 -0.3857213 0 0 0 2.2792377e-38
0.23906994 -0.5136137 -0.4616535 0 0 0 2.2792377e-38
0.16970205 -0.61386847 -0.52562404 0 0 0 2.2792377e-38
0.1754024 -0.60562992 -0.60356981 0 0 0 2.2792377e-38
0.2544322 -0.52011204 -0.38315096 0 0 0 2.2792377e-38
0.22971368 -0.5555582 -0.45752791 0 0 0 2.2792377e-38
0.18727946 -0.61640882 -0.52658802 0 0 0 2.2792377e-38
0.16580534 -0.64720273 -0.59806025 0 0 0 2.2792377e-38
0.26895595 -0.52784729 -0.3833223 0 0 0 2.2792377e-38
0.21436501 -0.60552216 -0.45237094 0 0 0 2.2792377e-38
0.187747 -0.64339566 -0.52393705 0 0 0 2.2792377e-38
0.17985725 -0.65462184 -0.59833574 0 0 0 2.2792377e-38
0.28040051 -0.53591752 -0.3833223 0 0 0 2.2792377e-38
0.22786379 -0.61017251 -0.4527835 0 0 0 2.2792377e-38
0.19882894 -0.65121031 -0.52393705 0 0 0 2.2792377e-38
0.18632746 -0.66887999 -0.59723383 0 0 0 2.2792377e-38
0.11187243 -0.43677783 -0.931692 0 0 0 2.2792377e-38
0.27405381 -0.57295966 -0.38040927 0 0 0 2.2792377e-38
0.22012305 -0.64859581 -0.44907045 0 0 0 2.2792377e-38
0.19213152 -0.68785286 -0.51984 0 0 0 2.2792377e-38
0.18996 -0.69089842 -0.59503001 0 0 0 2.2792377e-38
0.14989638 -0.40796638 -0.78294754 0 0 0 2.2792377e-38
0.1347909 -0.431247 -0.85675752 0 0 0 2.2792377e-38
0.089330435 -0.50145221 -0.91774327 0 0 0 2.2792377e-38
0.23627567 -0.30552387 -0.315667 0 0 0 2.2792377e-38
0.2988658 -0.56621504 -0.38212281 0 0 0 2.2792377e-38
0.24115634 -0.6465261 -0.45051441 0 0 0 2.2792377e-38
0.20837092 -0.69215202 -0.52056301 0 0 0 2.2792377e-38
0.19808865 -0.70646119 -0.5939281 0 0 0 2.2792377e-38
0.14535189 -0.44498086 -0.77710718 0 0 0 2.2792377e-38
0.12161756 -0.48126864 -0.84733015 0 0 0 2.2792377e-38
0.088848352 -0.53150892 -0.91240996 0 0 0 2.2792377e-38
0.23854256 -0.32849097 -0.31444085 0 0 0 2.2792377e-38
0.3113575 -0.5727644 -0.38229418 0 0 0 2.2792377e-38
0.22657776 -0.68996906 -0.44597626 0 0 0 2.2792377e-38
0.21115398 -0.71129179 -0.51887602 0 0 0 2.2792377e-38
0.20665026 -0.71751809 -0.59337717 0 0 0 2.2792377e-38
0.16831756 -0.43542266 -0.70169449 0 0 0 2.2792377e-38
0.15055537 -0.4625361 -0.77504587 0 0 0 2.2792377e-38
0.12564731 -0.50035882 -0.8446905 0 0 0 2.2792377e-38
0.092745781 -0.55045676 -0.90953815 0 0 0 2.2792377e-38
0.21069145 -0.4009738 -0.30926374 0 0 0 2.2792377e-38
0.31984711 -0.58877921 -0.38160875 0 0 0 2.2792377e-38
0.24167705 -0.69601631 -0.44638884 0 0 0 2.2792377e-38
0.2250011 -0.71889329 -0.519117 0 0 0 2.2792377e-38
0.22163892 -0.72350574 -0.5939281 0 0 0 2.2792377e-38
0.14157486 -0.50538301 -0.69023699 0 0 0 2.2792377e-38
0.1347239 -0.51584244 -0.76577008 0 0 0 2.2792377e-38
0.11302781 -0.54852605 -0.83564025 0 0 0 2.2792377e-38
0.090857029 -0.58206129 -0.90379459 0 0 0 2.2792377e-38
0.19827247 -0.44939137 -0.22659174 0 0 0 2.2792377e-38
0.19898677 -0.44832349 -0.30613023 0 0 0 2.2792377e-38
0.34241033 -0.58553672 -0.3829796 0 0 0 2.2792377e-38
0.26029897 -0.69731784 -0.44742021 0 0 0 2.2792377e-38
0.24000144 -0.72494936 -0.51959902 0 0 0 2.2792377e-38
0.24248075 -0.72157431 -0.59585643 0 0 0 2.2792377e-38
0.16379762 -0.50119758 -0.69271427 0 0 0 2.2792377e-38
0.14483142 -0.52968192 -0.76473945 0 0 0 2.2792377e-38
0.12521029 -0.55900574 -0.83526313 0 0 0 2.2792377e-38
0.10183167 -0.59408069 -0.90297407 0 0 0 2.2792377e-38
0.17871809 -0.50362635 -0.22376439 0 0 0 2.2792377e-38
0.19396043 -0.48099804 -0.30408666 0 0 0 2.2792377e-38
0.34538007 -0.60505295 -0.38178012 0 0 0 2.2792377e-38
0.26648021 -0.71175814 -0.4465951 0 0 0 2.2792377e-38
0.2472856 -0.73771691 -0.51887602 0 0 0 2.2792377e-38
0.24153924 -0.74548841 -0.59310168 0 0 0 2.2792377e-38
0.14552045 -0.55318356 -0.68435341 0 0 0 2.2792377e-38
0.14195991 -0.55860496 -0.76027328 0 0 0 2.2792377e-38
0.12887597 -0.57802701 -0.83262348 0 0 0 2.2792377e-38
0.10869431 -0.60811925 -0.90133303 0 0 0 2.2792377e-38
0.20786476 -0.48957872 -0.22517806 0 0 0 2.2792377e-38
0.20299888 -0.49674559 -0.30354169 0 0 0 2.2792377e-38
0.3894012 -0.5732069 -0.38623536 0 0 0 2.2792377e-38
0.29698443 -0.69723845 -0.4496893 0 0 0 2.2792377e-38
0.26935625 -0.73431826 -0.52080399 0 0 0 2.2792377e-38
0.26592708 -0.73892045 -0.59585643 0 0 0 2.2792377e-38
0.15766788 -0.56378436 -0.68404377 0 0 0 2.2792377e-38
0.15077043 -0.57407832 -0.75889909 0 0 0 2.2792377e-38
0.13873243 -0.59180689 -0.83149219 0 0 0 2.2792377e-38
0.12175059 -0.61695004 -0.90133303 0 0 0 2.2792377e-38
0.19766617 -0.533391 -0.22305755 0 0 0 2.2792377e-38
0.19843316 -0.53227019 -0.30136186 0 0 0 2.2792377e-38
0.42890501 -0.54801011 -0.39000517 0 0 0 2.2792377e-38
0.31568527 -0.69880462 -0.4507207 0 0 0 2.2792377e-38
0.27002811 -0.75961423 -0.51839399 0 0 0 2.2792377e-38
0.30942726 -0.70713949 -0.60301882 0 0 0 2.2792377e-38
0.16530704 -0.58094811 -0.68249542 0 0 0 2.2792377e-38
0.16283846 -0.58468938 -0.75855559 0 0 0 2.2792377e-38
0.15295768 -0.59912705 -0.8318693 0 0 0 2.2792377e-38
0.10050178 -0.67590523 -0.88861507 0 0 0 2.2792377e-38
0.24156022 -0.49411106 -0.14670978 0 0 0 2.2792377e-38
0.21135998 -0.53794765 -0.22325951 0 0 0 2.2792377e-38
0.22458053 -0.51875782 -0.30313295 0 0 0 2.2792377e-38
0.34458375 -0.68321466 -0.45381489 0 0 0 2.2792377e-38
0.30229187 -0.73917532 -0.52273202 0 0 0 2.2792377e-38
0.33702946 -0.6932106 -0.60687554 0 0 0 2.2792377e-38
0.17434311 -0.5919466 -0.68187612 0 0 0 2.2792377e-38
0.17075133 -0.59729338 -0.75752491 0 0 0 2.2792377e-38
0.15637827 -0.61815405 -0.82922965 0 0 0 2.2792377e-38
0.098154545 -0.70278811 -0.88369203 0 0 0 2.2792377e-38
0.24021268 -0.52477479 -0.14585683 0 0 0 2.2792377e-38
0.21100211 -0.56684375 -0.22204778 0 0 0 2.2792377e-38
0.22203112 -0.55096006 -0.3012256 0 0 0 2.2792377e-38
0.37423658 -0.67075229 -0.4567028 0 0 0 2.2792377e-38
0.32569242 -0.73449874 -0.52490103 0 0 0 2.2792377e-38
0.36897469 -0.6776619 -0.61128312 0 0 0 2.2792377e-38
0.1840775 -0.60588694 -0.68094712 0 0 0 2.2792377e-38
0.17373276 -0.62091684 -0.75443298 0 0 0 2.2792377e-38
0.13690853 -0.67394519 -0.81829393 0 0 0 2.2792377e-38
0.10193157 -0.72444201 -0.88040996 0 0 0 2.2792377e-38
0.23867464 -0.55537891 -0.14500386 0 0 0 2.2792377e-38
0.22191858 -0.57932305 -0.22184584 0 0 0 2.2792377e-38
0.24444842 -0.54712796 -0.30231553 0 0 0 2.2792377e-38
0.25776505 -0.16459465 -0.46497744 0 0 0 2.2792377e-38
0.43671393 -0.61584759 -0.46516025 0 0 0 2.2792377e-38
0.37333488 -0.69844508 -0.53189009 0 0 0 2.2792377e-38
0.39865732 -0.66544414 -0.61513984 0 0 0 2.2792377e-38
0.19034386 -0.62470722 -0.67908913 0 0 0 2.2792377e-38
0.18335247 -0.63482857 -0.75340235 0 0 0 2.2792377e-38
0.12382054 -0.71989012 -0.80962074 0 0 0 2.2792377e-38
0.12129617 -0.72362518 -0.88287151 0 0 0 2.2792377e-38
0.24657917 -0.56825614 -0.14480703 0 0 0 2.2792377e-38
0.23205137 -0.58887815 -0.22174485 0 0 0 2.2792377e-38
0.25927997 -0.55022764 -0.30272424 0 0 0 2.2792377e-38
0.26605535 -0.17933559 -0.46419859 0 0 0 2.2792377e-38
0.17189646 -0.67452669 -0.67103791 0 0 0 2.2792377e-38
0.16722608 -0.6812849 -0.74515718 0 0 0 2.2792377e-38
0.12334991 -0.7435596 -0.80584979 0 0 0 2.2792377e-38
0.14114618 -0.71842909 -0.88615352 0 0 0 2.2792377e-38
0.020929098 -0.56409788 -1.1241148 0 0 0 2.2792377e-38
0.25746632 -0.58085251 -0.14467579 0 0 0 2.2792377e-38
0.24633384 -0.59653258 -0.22184584 0 0 0 2.2792377e-38
0.26908207 -0.56449175 -0.30231553 0 0 0 2.2792377e-38
0.25002313 -0.23605776 -0.37570083 0 0 0 2.2792377e-38
0.26988149 -0.20546603 -0.46225145 0 0 0 2.2792377e-38
0.16640639 -0.70936584 -0.66608334 0 0 0 2.2792377e-38
0.16062212 -0.71764016 -0.73931682 0 0 0 2.2792377e-38
0.13477254 -0.75404477 -0.80547273 0 0 0 2.2792377e-38
0.17873073 -0.69226575 -0.89517915 0 0 0 2.2792377e-38
0.028896332 -0.58073139 -1.1215795 0 0 0 2.2792377e-38
0.27527428 -0.58372617 -0.14493825 0 0 0 2.2792377e-38
0.26524329 -0.59774566 -0.22235072 0 0 0 2.2792377e-38
0.28578067 -0.56904244 -0.30272424 0 0 0 2.2792377e-38
0.27096915 -0.23538518 -0.37665924 0 0 0 2.2792377e-38
0.28658509 -0.21155429 -0.46264088 0 0 0 2.2792377e-38
0.17564178 -0.72322822 -0.66515434 0 0 0 2.2792377e-38
0.16639709 -0.73627424 -0.73725551 0 0 0 2.2792377e-38
0.14958 -0.75977564 -0.80622691 0 0 0 2.2792377e-38
0.1994524 -0.69020963 -0.89805096 0 0 0 2.2792377e-38
0.30523539 -0.56586432 -0.14598805 0 0 0 2.2792377e-38
0.27763557 -0.6041832 -0.22245169 0 0 0 2.2792377e-38
0.30409265 -0.56745076 -0.30354169 0 0 0 2.2792377e-38
0.27458787 -0.25680089 -0.37538135 0 0 0 2.2792377e-38
0.30229735 -0.21468759 -0.46322501 0 0 0 2.2792377e-38
0.18531799 -0.7326076 -0.66484469 0 0 0 2.2792377e-38
0.17488432 -0.74721861 -0.73656845 0 0 0 2.2792377e-38
0.18096066 -0.73878312 -0.81301457 0 0 0 2.2792377e-38
0.22411704 -0.67900157 -0.90297407 0 0 0 2.2792377e-38
0.31727123 -0.57703352 -0.14592244 0 0 0 2.2792377e-38
0.2907052 -0.61363316 -0.22245169 0 0 0 2.2792377e-38
0.2360568 -0.3462472 -0.28614783 0 0 0 2.2792377e-38
0.31846881 -0.57538342 -0.30367792 0 0 0 2.2792377e-38
0.29003 -0.26457906 -0.37554109 0 0 0 2.2792377e-38
0.32228184 -0.21592784 -0.46419859 0 0 0 2.2792377e-38
0.19211411 -0.74971342 -0.6632964 0 0 0 2.2792377e-38
0.20131993 -0.73715782 -0.74069101 0 0 0 2.2792377e-38
0.23853779 -0.68588853 -0.82772124 0 0 0 2.2792377e-38
0.2231133 -0.70726371 -0.89805096 0 0 0 2.2792377e-38
0.15837574 -0.46547794 -1.0097955 0 0 0 2.2792377e-38
0.033198357 -0.6550684 -1.0321393 0 0 0 2.2792377e-38
0.32496667 -0.59411168 -0.22426927 0 0 0 2.2792377e-38
0.2489655 -0.35720778 -0.28602335 0 0 0 2.2792377e-38
0.35049224 -0.55921531 -0.30585775 0 0 0 2.2792377e-38
0.34118867 -0.21891785 -0.46497744 0 0 0 2.2792377e-38
0.20581746 -0.75725436 -0.66360605 0 0 0 2.2792377e-38
0.2092495 -0.75268793 -0.73931682 0 0 0 2.2792377e-38
0.25942588 -0.68409801 -0.83036089 0 0 0 2.2792377e-38
0.26007652 -0.6833365 -0.90666634 0 0 0 2.2792377e-38
0.16870975 -0.47936058 -1.0084668 0 0 0 2.2792377e-38
0.045005798 -0.66523862 -1.0316641 0 0 0 2.2792377e-38
0.32435966 -0.6184423 -0.22325951 0 0 0 2.2792377e-38
0.33364534 -0.25697207 -0.4614726 0 0 0 2.2792377e-38
0.21888471 -0.76194286 -0.66422534 0 0 0 2.2792377e-38
0.23634386 -0.73835826 -0.7441265 0 0 0 2.2792377e-38
0.27853203 -0.68106651 -0.8330006 0 0 0 2.2792377e-38
0.26290751 -0.70241165 -0.90379459 0 0 0 2.2792377e-38
0.14553189 -0.53894114 -0.99429423 0 0 0 2.2792377e-38
0.048441887 -0.68389678 -1.0283377 0 0 0 2.2792377e-38
0.25775623 -0.37241149 -1.2001712 0 0 0 2.2792377e-38
0.21459126 -0.46366477 -0.19996765 0 0 0 2.2792377e-38
0.18098402 -0.51351666 -0.27556819 0 0 0 2.2792377e-38
0.20801544 -0.47353148 -0.35797006 0 0 0 2.2792377e-38
0.34575748 -0.26992774 -0.46108317 0 0 0 2.2792377e-38
0.23255396 -0.7695899 -0.66453505 0 0 0 2.2792377e-38
0.29588556 -0.68436646 -0.75786847 0 0 0 2.2792377e-38
0.29014945 -0.69209671 -0.83262348 0 0 0 2.2792377e-38
0.28028321 -0.7055192 -0.90543556 0 0 0 2.2792377e-38
0.069244385 -0.68038154 -0.95797706 0 0 0 2.2792377e-38
0.059044123 -0.69572473 -1.0273873 0 0 0 2.2792377e-38
0.12099934 -0.60453081 -1.1296922 0 0 0 2.2792377e-38
0.27890301 -0.37139225 -1.2834921 0 0 0 2.2792377e-38
0.21355081 -0.49434972 -0.19880816 0 0 0 2.2792377e-38
0.19663477 -0.51931405 -0.27581713 0 0 0 2.2792377e-38
0.21595144 -0.49096489 -0.35717139 0 0 0 2.2792377e-38
0.31521726 -0.34542632 -0.45329461 0 0 0 2.2792377e-38
0.27341485 -0.74089503 -0.67196691 0 0 0 2.2792377e-38
0.31810045 -0.68125939 -0.76061684 0 0 0 2.2792377e-38
0.31701136 -0.68271589 -0.83714861 0 0 0 2.2792377e-38
0.29767036 -0.70870781 -0.9070766 0 0 0 2.2792377e-38
0.080937386 -0.69067883 -0.95753413 0 0 0 2.2792377e-38
0.077251434 -0.696347 -1.0297632 0 0 0 2.2792377e-38
0.13406873 -0.61340666 -1.1296922 0 0 0 2.2792377e-38
0.17454505 -0.55431318 -1.2248089 0 0 0 2.2792377e-38
0.22510099 -0.50224614 -0.19880816 0 0 0 2.2792377e-38
0.20246053 -0.53538728 -0.27519479 0 0 0 2.2792377e-38
0.22074556 -0.50873256 -0.35621294 0 0 0 2.2792377e-38
0.22589207 -0.50136757 -0.43577033 0 0 0 2.2792377e-38
0.32815266 -0.69056582 -0.68342441 0 0 0 2.2792377e-38
0.33024764 -0.68790913 -0.7609604 0 0 0 2.2792377e-38
0.3504107 -0.6611197 -0.84431338 0 0 0 2.2792377e-38
0.32031822 -0.70122766 -0.91117918 0 0 0 2.2792377e-38
0.0918715 -0.69815779 -0.95753413 0 0 0 2.2792377e-38
0.084869385 -0.70861936 -1.0283377 0 0 0 2.2792377e-38
0.13867569 -0.6306231 -1.12665 0 0 0 2.2792377e-38
0.15320277 -0.60972667 -1.2086576 0 0 0 2.2792377e-38
0.22604585 -0.5295825 -0.19782706 0 0 0 2.2792377e-38
0.22145891 -0.53635287 -0.27581713 0 0 0 2.2792377e-38
0.23870039 -0.51141548 -0.35685191 0 0 0 2.2792377e-38
0.23933887 -0.5106287 -0.43577033 0 0 0 2.2792377e-38
0.35045695 -0.68760562 -0.6859017 0 0 0 2.2792377e-38
0.46087885 -0.542135 -0.7949717 0 0 0 2.2792377e-38
0.36564493 -0.66770601 -0.84506756 0 0 0 2.2792377e-38
0.36496973 -0.66872334 -0.92225611 0 0 0 2.2792377e-38
0.10348845 -0.70853019 -0.95709127 0 0 0 2.2792377e-38
0.14397717 -0.65025878 -1.0482962 0 0 0 2.2792377e-38
0.1505487 -0.64115453 -1.1261429 0 0 0 2.2792377e-38
0.16077328 -0.62664056 -1.2059658 0 0 0 2.2792377e-38
0.22796655 -0.55523682 -0.19693515 0 0 0 2.2792377e-38
0.23477745 -0.54559755 -0.27581713 0 0 0 2.2792377e-38
0.24185228 -0.5354445 -0.35541427 0 0 0 2.2792377e-38
0.2425096 -0.53463697 -0.4340179 0 0 0 2.2792377e-38
0.40041161 -0.64865327 -0.69550127 0 0 0 2.2792377e-38
0.39994812 -0.64938736 -0.85185528 0 0 0 2.2792377e-38
0.16636872 -0.6453445 -0.9770214 0 0 0 2.2792377e-38
0.16132331 -0.65284419 -1.050197 0 0 0 2.2792377e-38
0.16127062 -0.65331244 -1.1251289 0 0 0 2.2792377e-38
0.16935444 -0.64198208 -1.2038122 0 0 0 2.2792377e-38
0.23014593 -0.57626367 -0.1962216 0 0 0 2.2792377e-38
0.23470283 -0.56990147 -0.27457246 0 0 0 2.2792377e-38
0.26586723 -0.52547669 -0.35717139 0 0 0 2.2792377e-38
0.26422119 -0.52795839 -0.43577033 0 0 0 2.2792377e-38
0.17632437 -0.65468836 -0.97657853 0 0 0 2.2792377e-38
0.17237568 -0.66057563 -1.050197 0 0 0 2.2792377e-38
0.1778791 -0.65312648 -1.127664 0 0 0 2.2792377e-38
0.18376088 -0.64500952 -1.2054273 0 0 0 2.2792377e-38
0.24562502 -0.58227706 -0.19639999 0 0 0 2.2792377e-38
0.24789834 -0.57919455 -0.27457246 0 0 0 2.2792377e-38
0.28728175 -0.523489 -0.35828954 0 0 0 2.2792377e-38
0.24079847 -0.58936954 -0.42953947 0 0 0 2.2792377e-38
0.19596696 -0.65421295 -0.97923589 0 0 0 2.2792377e-38
0.18748307 -0.66646743 -1.0511473 0 0 0 2.2792377e-38
0.19077015 -0.6622107 -1.127664 0 0 0 2.2792377e-38
0.19556904 -0.65568757 -1.2048889 0 0 0 2.2792377e-38
0.24486279 -0.61113667 -0.1953297 0 0 0 2.2792377e-38
0.25642657 -0.59503841 -0.27407461 0 0 0 2.2792377e-38
0.29601955 -0.53946972 -0.35765058 0 0 0 2.2792377e-38
0.23775172 -0.62137985 -0.42681348 0 0 0 2.2792377e-38
0.20545769 -0.66812778 -0.97790718 0 0 0 2.2792377e-38
0.19581413 -0.68191433 -1.0492465 0 0 0 2.2792377e-38
0.19801211 -0.67921829 -1.1251289 0 0 0 2.2792377e-38
0.20621395 -0.66797328 -1.2038122 0 0 0 2.2792377e-38
0.2723484 -0.59640074 -0.19657838 0 0 0 2.2792377e-38
0.27347708 -0.59495878 -0.27469695 0 0 0 2.2792377e-38
0.30277967 -0.5541048 -0.35701165 0 0 0 2.2792377e-38
0.24542212 -0.63420391 -0.42622933 0 0 0 2.2792377e-38
0.21987295 -0.67124414 -0.97923589 0 0 0 2.2792377e-38
0.19997907 -0.69922423 -1.0463953 0 0 0 2.2792377e-38
0.21010947 -0.68549323 -1.1256359 0 0 0 2.2792377e-38
0.22732711 -0.66176224 -1.2086576 0 0 0 2.2792377e-38
0.28076506 -0.61230874 -0.1962216 0 0 0 2.2792377e-38
0.28775001 -0.60277605 -0.2748214 0 0 0 2.2792377e-38
0.30902553 -0.57334161 -0.3560532 0 0 0 2.2792377e-38
0.24788737 -0.65805435 -0.42447689 0 0 0 2.2792377e-38
0.22698283 -0.68838406 -0.9770214 0 0 0 2.2792377e-38
0.22066998 -0.69736958 -1.0497217 0 0 0 2.2792377e-38
0.22628307 -0.68999243 -1.127157 0 0 0 2.2792377e-38
0.23567057 -0.67727041 -1.2065041 0 0 0 2.2792377e-38
0.31145 -0.59754515 -0.19755949 0 0 0 2.2792377e-38
0.30905151 -0.60096884 -0.27569267 0 0 0 2.2792377e-38
0.33511972 -0.56518126 -0.35781032 0 0 0 2.2792377e-38
0.26193166 -0.66578627 -0.42467162 0 0 0 2.2792377e-38
0.24089289 -0.69607186 -0.97746432 0 0 0 2.2792377e-38
0.22996593 -0.7113204 -1.0482962 0 0 0 2.2792377e-38
0.23562002 -0.70394397 -1.1256359 0 0 0 2.2792377e-38
0.24960709 -0.68500948 -1.2070425 0 0 0 2.2792377e-38
0.32621956 -0.60091448 -0.19782706 0 0 0 2.2792377e-38
0.32026625 -0.60916471 -0.27569267 0 0 0 2.2792377e-38
0.3523407 -0.56542063 -0.35860902 0 0 0 2.2792377e-38
0.27882814 -0.66580772 -0.42564517 0 0 0 2.2792377e-38
0.2541163 -0.70090795 -0.9783501 0 0 0 2.2792377e-38
0.25922036 -0.69420457 -1.0558994 0 0 0 2.2792377e-38
0.26482248 -0.68695092 -1.1337485 0 0 0 2.2792377e-38
0.26625538 -0.68525338 -1.2097343 0 0 0 2.2792377e-38
0.34405017 -0.60411477 -0.19818382 0 0 0 2.2792377e-38
0.34873819 -0.59790039 -0.27731073 0 0 0 2.2792377e-38
0.36555195 -0.57514477 -0.35860902 0 0 0 2.2792377e-38
0.29640341 -0.66885829 -0.42642406 0 0 0 2.2792377e-38
0.27726579 -0.69615579 -0.98233616 0 0 0 2.2792377e-38
0.27427006 -0.7004621 -1.0568498 0 0 0 2.2792377e-38
0.28103948 -0.69168663 -1.1352696 0 0 0 2.2792377e-38
0.2847538 -0.6869173 -1.2124263 0 0 0 2.2792377e-38
0.42443776 -0.51953125 -0.36499849 0 0 0 2.2792377e-38
0.31690836 -0.66423678 -0.42798176 0 0 0 2.2792377e-38
0.28468871 -0.70894551 -0.98100746 0 0 0 2.2792377e-38
0.28633189 -0.70698953 -1.057325 0 0 0 2.2792377e-38
0.32662034 -0.65323305 -1.150481 0 0 0 2.2792377e-38
0.31179905 -0.67340374 -1.2199636 0 0 0 2.2792377e-38
0.34408283 -0.65471673 -0.43031833 0 0 0 2.2792377e-38
0.30907416 -0.70281625 -0.98543638 0 0 0 2.2792377e-38
0.3304925 -0.67450476 -1.0701555 0 0 0 2.2792377e-38
0.34415269 -0.65667129 -1.1525091 0 0 0 2.2792377e-38
0.37616062 -0.63899565 -0.43343374 0 0 0 2.2792377e-38
0.32648492 -0.70615649 -0.98720795 0 0 0 2.2792377e-38
0.34447527 -0.68259811 -1.0706307 0 0 0 2.2792377e-38
0.25851965 -0.49758697 -0.12042364 0 0 0 2.2792377e-38
0.35926437 -0.68940377 -0.99473715 0 0 0 2.2792377e-38
0.27005935 -0.50562453 -0.12042364 0 0 0 2.2792377e-38
0.27658296 -0.52485466 -0.12010093 0 0 0 2.2792377e-38
0.29225779 -0.53104091 -0.12020849 0 0 0 2.2792377e-38
0.31415319 -0.52454424 -0.12069256 0 0 0 2.2792377e-38
