# .PCD v0.7 - Point Cloud Data file format
VERSION 0.7
FIELDS x y z
SIZE 4 4 4
TYPE F F F
COUNT 1 1 1
WIDTH 979
HEIGHT 1
VIEWPOINT 0 0 0 1 0 0 0
POINTS 979
DATA ascii
2.1546223 -0.036743801 -0.19785906
2.1664205 -0.044888187 -0.19895625
2.1542952 -0.052536882 -0.19785906
2.1592565 -0.059445955 -0.16010429
2.144165 -0.059030477 -0.19694474
2.1490564 -0.067048639 -0.15936512
2.1220372 -0.066205665 -0.19493324
2.1308563 -0.074299335 -0.15803461
2.1177995 -0.073844075 -0.1945675
2.1625018 -0.082205489 -0.16039996
2.1095963 -0.080194339 -0.19383605
2.1303012 -0.088801794 -0.15803461
2.0973489 -0.087428167 -0.19273886
2.1419163 -0.097151369 -0.15892161
2.0950246 -0.095024504 -0.19255599
2.1355693 -0.10470821 -0.15847811
2.1046085 -0.10319018 -0.19347031
2.2265429 -0.011658161 -0.309636
2.1616111 -0.11283117 -0.12219217
2.1392136 -0.11162464 -0.15877378
2.078418 -0.10845231 -0.19109309
2.2355118 -0.018728521 -0.27136758
2.2185719 -0.018586602 -0.30853409
2.1310759 -0.11907092 -0.082666904
2.1791263 -0.12175567 -0.12320669
2.1467557 -0.11990943 -0.15936512
2.072041 -0.11573616 -0.19054449
2.2155752 -0.026682861 -0.26895756
2.1788731 -0.026240844 -0.30302456
2.1326864 -0.12588306 -0.082744308
2.1528196 -0.12707144 -0.12174128
2.1403954 -0.1263006 -0.15892161
2.0816081 -0.12283167 -0.19145881
2.2238188 -0.033769771 -0.23062047
2.1777618 -0.033070374 -0.26437852
2.1589727 -0.032785054 -0.30026978
2.1202431 -0.13294849 -0.082279891
2.1483536 -0.13471113 -0.12151583
2.1419086 -0.13426948 -0.15906945
2.0712051 -0.1298373 -0.19054449
2.2137351 -0.041732769 -0.22958907
2.1677005 -0.040864941 -0.26317352
2.1093235 -0.039764427 -0.29338285
2.1356945 -0.14177769 -0.082899116
2.1637847 -0.14364247 -0.12241762
2.153343 -0.14291155 -0.15995646
2.098537 -0.13927421 -0.19310459
2.181746 -0.049129665 -0.2262886
2.1139433 -0.047602851 -0.25666648
2.0636134 -0.046469498 -0.28704688
2.1192117 -0.14848697 -0.082279891
2.1473083 -0.15045562 -0.12151583
2.1448462 -0.15024549 -0.15936512
2.2031109 -0.057690397 -0.18951921
2.0960257 -0.14682563 -0.19292173
2.1437669 -0.056136418 -0.2223693
2.0859683 -0.054622911 -0.25329247
2.0535281 -0.053773433 -0.28566951
2.1287005 -0.15587367 -0.082666904
2.1368675 -0.1564717 -0.12095222
2.1702232 -0.15887609 -0.16128697
2.1849928 -0.064085603 -0.18797702
2.1193898 -0.15515471 -0.1951161
2.1197183 -0.062171109 -0.21989395
2.054033 -0.060244575 -0.24943644
2.0454285 -0.059992205 -0.28456759
2.1201444 -0.16306168 -0.082357295
2.1322978 -0.16399641 -0.12072677
2.1576943 -0.16591179 -0.16039996
2.140929 -0.070647761 -0.18420719
2.1128495 -0.16246353 -0.1945675
2.0876641 -0.068890095 -0.21659347
2.0657046 -0.068165459 -0.25088245
2.0075777 -0.066247351 -0.27933353
2.09762 -0.16906519 -0.08150585
2.1137691 -0.17036679 -0.11971226
2.1769526 -0.17542104 -0.1618783
2.1466296 -0.078713231 -0.18472126
2.1340768 -0.17196608 -0.19657901
2.0854096 -0.076468408 -0.21638718
2.0356796 -0.074644886 -0.24726743
2.0231583 -0.074185751 -0.28153735
2.0950871 -0.1754874 -0.081428453
2.1211829 -0.17767324 -0.12016316
2.1843412 -0.18292506 -0.16246964
2.1344252 -0.084981032 -0.18369313
2.1374955 -0.17900203 -0.19694474
2.061306 -0.082069829 -0.21391183
2.0096447 -0.080012962 -0.24413441
1.995204 -0.079438008 -0.27768067
2.0944297 -0.1831651 -0.081428453
2.1065929 -0.18422881 -0.11937409
2.1578257 -0.18867135 -0.16054779
2.1241455 -0.092370674 -0.18283634
2.1368251 -0.18683514 -0.19694474
2.0689411 -0.089970045 -0.21473695
2.0053709 -0.087205626 -0.2436524
2.0166693 -0.087696947 -0.28071091
2.2550056 0.00086595857 -0.47261521
2.0778222 -0.18938908 -0.080809221
2.117835 -0.19303615 -0.12005043
2.1789689 -0.19857003 -0.16217397
2.1178215 -0.099873833 -0.18232228
2.1420763 -0.19520798 -0.19749333
2.0685976 -0.097552493 -0.21473695
2.0090044 -0.094742149 -0.24413441
1.9945681 -0.094061352 -0.27768067
2.3018904 -0.0074725808 -0.36075643
2.2815635 -0.0074464157 -0.39782941
2.2626638 -0.0073847319 -0.43441224
2.2491212 -0.0073797875 -0.47138447
2.1590416 -0.10861667 0.031393599
2.1328311 -0.10729807 -0.044882096
2.0712481 -0.19535284 -0.080577008
2.1072781 -0.19875105 -0.11948682
2.1366341 -0.20148221 -0.15906945
2.1155071 -0.10642654 -0.18215093
2.1374867 -0.20156258 -0.19712761
2.0364916 -0.10245144 -0.21143648
1.9928334 -0.10025509 -0.24220639
1.9982196 -0.10052606 -0.27823162
2.2682662 -0.014489567 -0.35549217
2.240154 -0.014349088 -0.3906149
2.2469168 -0.014392406 -0.4313955
2.2334275 -0.014344984 -0.4681024
2.1146977 -0.11415768 0.030754693
2.1189034 -0.11438472 -0.0069627343
2.1364169 -0.11533014 -0.044966146
2.0844409 -0.20430768 -0.081118837
2.1025608 -0.2060837 -0.11926137
2.1259563 -0.20833936 -0.15833028
2.1190825 -0.11439437 -0.18249364
2.0639126 -0.11141615 -0.2143244
2.0023654 -0.10809363 -0.24341141
1.9958597 -0.10774244 -0.27795616
2.2148516 -0.022266772 -0.34713131
2.2026532 -0.02218258 -0.38408747
2.2036402 -0.022192523 -0.42309943
2.223573 -0.022432076 -0.46605113
2.1062791 -0.12144721 0.030638527
2.1104832 -0.12168961 -0.0069364845
2.161931 -0.12465606 -0.045512464
2.0777135 -0.21133944 -0.080886625
2.1037779 -0.21399066 -0.11937409
2.1271627 -0.21633178 -0.15847811
2.1047235 -0.1213575 -0.18129414
2.0515742 -0.11829294 -0.21308672
2.0039377 -0.11554623 -0.2436524
1.9816078 -0.1142587 -0.27602783
2.1633871 -0.029679734 -0.3390801
2.1513348 -0.029551944 -0.37515521
2.1328421 -0.029297918 -0.40952405
2.1236544 -0.029208779 -0.44512805
2.0998988 -0.12769949 0.030551404
2.1021054 -0.12783368 -0.0069102347
2.1495535 -0.13071911 -0.045260318
2.0651135 -0.21661481 -0.080422208
2.083236 -0.21851572 -0.11824686
2.1165543 -0.22197321 -0.15773894
2.1142766 -0.12857385 -0.18215093
2.0511925 -0.12473755 -0.21308672
2.0035648 -0.12184121 -0.2436524
2.0010118 -0.12168596 -0.27878258
2.1040151 -0.035476714 -0.3297902
2.0862215 -0.035213113 -0.36381808
2.089535 -0.035269033 -0.40122798
2.1020231 -0.035516519 -0.44061524
2.1125109 -0.13623963 0.068264514
2.0794604 -0.13410813 0.030260991
2.0936394 -0.13502255 -0.0068839849
2.1370873 -0.13782461 -0.045008171
2.0821872 -0.22612429 -0.081118837
2.094332 -0.22744322 -0.11892319
2.1196923 -0.23015989 -0.15803461
2.1098142 -0.13606571 -0.18180822
2.0308695 -0.13097441 -0.21102393
1.9813105 -0.12777826 -0.2410014
1.9748538 -0.12736185 -0.27520138
2.0900428 -0.042904209 -0.32762259
2.0604703 -0.04233313 -0.35935196
2.0677907 -0.042483531 -0.39707994
2.0823081 -0.042818155 -0.43651268
2.1359293 -0.14561297 0.069038048
2.1009016 -0.14322501 0.030580444
2.0951257 -0.14283125 -0.0068905475
2.1405578 -0.1459285 -0.045092218
2.0892885 -0.23464656 -0.081428453
2.1073749 -0.23667783 -0.11971226
2.1089242 -0.23681456 -0.15729544
2.1172535 -0.14433977 -0.18249364
2.020452 -0.13774052 -0.20999253
1.978848 -0.13490424 -0.24076039
1.9723973 -0.13446447 -0.27492592
2.0503654 -0.049608465 -0.32142934
2.0445437 -0.049503319 -0.35660356
2.0460222 -0.049539112 -0.39293191
2.0332148 -0.049264524 -0.42625627
2.1154432 -0.15200788 0.068393439
2.080416 -0.14949095 0.030290032
2.094588 -0.15050931 -0.0068905475
2.1080978 -0.15148008 -0.044419829
2.0745182 -0.24069032 -0.080886625
2.0807076 -0.24140842 -0.11824686
2.0941732 -0.24293372 -0.15626061
2.1286354 -0.15295582 -0.18352176
2.0358074 -0.14628555 -0.21164276
1.9941828 -0.14329456 -0.2426884
1.9797946 -0.14226067 -0.27602783
2.0343688 -0.05668284 -0.31895205
2.026623 -0.05650242 -0.35351163
2.0536802 -0.057256781 -0.39444029
2.0604146 -0.057480522 -0.43199986
2.1548223 -0.16164361 0.069682665
2.0639827 -0.15482928 0.030057702
2.0861275 -0.15649046 -0.0068642977
2.1135933 -0.15855083 -0.0445459
2.0995495 -0.25028172 -0.08189287
2.0997667 -0.25030759 -0.11937409
2.1092439 -0.25139999 -0.15744327
2.1360924 -0.16023859 -0.18420719
2.0293865 -0.15223406 -0.21102393
1.9858034 -0.14896467 -0.2417244
1.9773625 -0.14833148 -0.27575234
2.0460303 -0.063441128 -0.32081002
2.0244663 -0.062807858 -0.35316807
2.0377848 -0.06322106 -0.39142355
2.0367455 -0.063224398 -0.42707679
2.1043956 -0.16561943 0.068071127
2.0673885 -0.16270693 0.030115785
2.0755708 -0.16335087 -0.0068314858
2.107018 -0.16582581 -0.044419829
2.0728319 -0.25480545 -0.080886625
2.0889256 -0.25678378 -0.11881047
2.1736324 -0.075297095 -0.1485011
2.0964305 -0.25766921 -0.15655626
2.1434369 -0.16869205 -0.18489261
2.0228653 -0.15920286 -0.21040508
1.9990991 -0.15733242 -0.24341141
1.98273 -0.15604416 -0.27657875
1.9964167 -0.069227912 -0.31306845
2.0202842 -0.070090845 -0.35248098
2.0296876 -0.070417084 -0.38991517
2.0325875 -0.070553206 -0.42625627
2.1236966 -0.17497271 0.068715744
2.0528271 -0.16913374 0.029912496
2.082931 -0.17161402 -0.0068577356
2.0804896 -0.17141286 -0.043873511
2.0917106 -0.26491204 -0.081660658
2.0820274 -0.2636857 -0.11847231
2.1394455 -0.081964746 -0.14618503
2.1626635 -0.17818321 -0.18660617
2.0500247 -0.16890286 -0.213293
1.9688282 -0.16221301 -0.23979639
1.9781963 -0.16298485 -0.27602783
2.0040474 -0.076847523 -0.31430709
1.9885126 -0.076286584 -0.34698421
2.0215652 -0.077554606 -0.38840678
2.0244911 -0.077702239 -0.42461523
2.0742033 -0.17745718 0.030231949
2.0923452 -0.1790093 -0.0068905475
2.0899022 -0.1788003 -0.044083633
2.0829406 -0.27045271 -0.081351049
2.0990105 -0.27253929 -0.11948682
2.1431649 -0.088850901 -0.14645749
2.1521659 -0.18412724 -0.1857494
2.0455198 -0.1750032 -0.21288043
1.9880909 -0.17008989 -0.24220639
1.9697796 -0.16852328 -0.27492592
1.9880025 -0.082487725 -0.31182981
2.0059803 -0.083268739 -0.35007614
2.0075743 -0.083334915 -0.38576713
2.0222812 -0.083980754 -0.42420498
2.0595958 -0.18381393 0.030028662
2.0777304 -0.18543242 -0.0068446104
2.0971994 -0.18716997 -0.044251729
2.089859 -0.27914363 -0.081660658
2.0841429 -0.27838013 -0.11869775
2.1428249 -0.096705392 -0.14645749
2.1594157 -0.19272262 -0.18643481
2.1102529 -0.18833496 -0.21968766
2.001297 -0.17861092 -0.24389341
2.0105836 -0.17943972 -0.28071091
1.9758435 -0.089238666 -0.30997184
1.9820424 -0.089553297 -0.34595355
2.0072556 -0.090692483 -0.38576713
2.0297818 -0.091745771 -0.42584601
2.0938823 -0.19461212 0.067813285
2.0788202 -0.19321218 0.030319074
2.0750456 -0.19286135 -0.0068380483
2.1312203 -0.10401025 -0.032215983
2.0984902 -0.19504037 -0.044293754
2.1205006 -0.29115108 -0.082899116
2.1384699 -0.10436406 -0.14618503
2.162663 -0.2010048 -0.18677752
2.1095483 -0.19606817 -0.21968766
1.9848138 -0.18447492 -0.2419654
1.9744086 -0.18350783 -0.27575234
1.9833974 -0.09686543 -0.31121048
1.9620217 -0.095855802 -0.34251806
1.9892535 -0.09718623 -0.38237327
2.0001047 -0.097751372 -0.41969216
2.2623708 -0.011529861 -0.51375562
2.2224488 -0.011403983 -0.54363137
2.2074168 -0.011442433 -0.57853627
2.2092924 -0.011529277 -0.61751908
2.0793321 -0.19985054 0.067362055
2.0702405 -0.19897674 0.030202908
2.0784109 -0.19976202 -0.006851173
2.1248918 -0.1103939 -0.032125406
2.0879152 -0.2006755 -0.044083633
2.1319749 -0.11076188 -0.07007426
2.1116593 -0.29669908 -0.0825895
2.1702979 -0.11275286 -0.10986266
2.1560657 -0.11201346 -0.14741118
2.1679714 -0.20836993 -0.18729159
2.1584272 -0.20745261 -0.22484465
1.9960823 -0.19184917 -0.24341141
2.0034001 -0.19255251 -0.27988449
1.9653243 -0.10217272 -0.30842352
1.9735166 -0.10263315 -0.34457937
1.975208 -0.10272112 -0.37973362
1.9685106 -0.10240726 -0.41312805
2.2525721 -0.018556908 -0.51154113
2.2418287 -0.018546659 -0.54838341
2.2305851 -0.018570445 -0.58462077
2.2246542 -0.018598728 -0.62182605
2.1004655 -0.20965424 0.068071127
2.0734773 -0.20696044 0.030260991
2.0776649 -0.20737843 -0.006851173
2.1264696 -0.11829235 -0.032155596
2.0891554 -0.20852533 -0.044125658
2.1056089 -0.1171319 -0.069221295
2.1459377 -0.11937533 -0.10865094
2.1456792 -0.11936095 -0.14672998
2.1671932 -0.21631454 -0.18729159
2.1893244 -0.21852353 -0.22814512
2.034878 -0.20310773 -0.24823143
2.0085943 -0.20048428 -0.28071091
1.9767736 -0.11003419 -0.31028149
1.9691926 -0.10964669 -0.34389228
1.9708961 -0.10974153 -0.37897944
1.968122 -0.10962153 -0.41312805
2.2505388 -0.026789658 -0.51109827
2.2378604 -0.026716866 -0.54743302
2.2285676 -0.026722627 -0.58411372
2.2207191 -0.026706044 -0.62074929
2.0945854 -0.21682374 0.030580444
2.1007631 -0.21746324 -0.0069299219
2.1519732 -0.12762453 -0.032548107
2.092355 -0.21659285 -0.044209708
2.1191332 -0.12567693 -0.069680586
2.1773889 -0.12913182 -0.11026657
2.1631539 -0.12828761 -0.14795613
2.1746573 -0.2251125 -0.22670117
2.0104213 -0.20811139 -0.24533941
2.017698 -0.20886464 -0.28208831
1.9605777 -0.11634234 -0.3078042
1.9530431 -0.11592943 -0.34114388
1.9665593 -0.11673173 -0.37822524
1.9462126 -0.11555808 -0.40861523
2.1899722 -0.034096882 -0.49736857
2.1911278 -0.034191377 -0.53602815
2.1994383 -0.034436248 -0.5765081
2.2109766 -0.034694102 -0.61805743
2.0552609 -0.21928114 0.066652983
2.0799744 -0.22191788 0.030377155
2.0861487 -0.22257663 -0.0068839849
2.1395862 -0.13363655 -0.03236695
2.0856993 -0.2225287 -0.044083633
2.1267083 -0.13283218 -0.069943033
2.147069 -0.13410391 -0.10875192
2.1607487 -0.13495834 -0.14781989
2.1991243 -0.040727817 -0.21515916
2.1660271 -0.23109907 -0.22587605
2.1755922 -0.23211962 -0.26558354
2.0091529 -0.21436176 -0.2809864
1.9661187 -0.12287081 -0.3087332
1.9585686 -0.12243329 -0.34217453
1.9563813 -0.12229656 -0.37633979
1.9536546 -0.12216035 -0.41025627
2.1333041 -0.039918534 -0.48452467
2.1327379 -0.039982416 -0.52177209
2.1625671 -0.040654894 -0.56687427
2.2031534 -0.041494817 -0.61590391
2.0623908 -0.22768998 0.066910826
2.0870979 -0.23041767 0.030493321
2.0892947 -0.23066019 -0.00689711
2.119128 -0.14015786 -0.032065019
2.0808947 -0.22973283 -0.043999583
2.1182287 -0.14009839 -0.069680586
2.1425769 -0.14170876 -0.10854996
2.1482937 -0.14208686 -0.14700246
2.1850302 -0.048478674 -0.21379617
2.1865675 -0.24139921 -0.26702955
2.0201676 -0.2230285 -0.28263927
1.9636835 -0.1299457 -0.30842352
1.9718684 -0.13052189 -0.34457937
1.9617995 -0.12985541 -0.37747106
1.9414747 -0.12854411 -0.40779474
2.0999959 -0.046995413 -0.4769955
2.1015012 -0.047102496 -0.51416886
2.1314569 -0.047885571 -0.5587616
2.1413643 -0.048182942 -0.59867585
2.0476401 -0.23366104 0.066459596
2.0782919 -0.23715881 0.030377155
2.0884352 -0.23831628 -0.00689711
2.1126153 -0.14750606 -0.031974439
2.1038787 -0.24007858 -0.044503879
2.1276715 -0.14855729 -0.07000865
2.1420431 -0.14956075 -0.10854996
2.1696541 -0.15148859 -0.1485011
2.1768785 -0.056281105 -0.2130173
2.0508273 -0.23402475 -0.28704688
1.9513676 -0.13631593 -0.30656555
1.955653 -0.13664959 -0.34183097
1.9573916 -0.13677108 -0.37671688
1.937085 -0.13538614 -0.40697423
2.0959101 -0.054590404 -0.47610971
2.0916042 -0.054551311 -0.51179284
2.092587 -0.054686584 -0.5486207
2.1180673 -0.055426456 -0.5922153
2.0449104 -0.23985986 0.066395134
2.0676057 -0.24252191 0.030231949
2.0876763 -0.24487612 -0.00689711
2.0981803 -0.15312341 -0.031763088
2.0872266 -0.24482337 -0.044167683
2.1132388 -0.15422237 -0.069549359
2.1316018 -0.15556249 -0.10804508
2.1432967 -0.15641597 -0.14672998
2.1362538 -0.061909772 -0.1712378
2.1329184 -0.061850365 -0.20873359
2.0579517 -0.24138954 -0.28814879
1.9647242 -0.14345284 -0.3087332
1.9394937 -0.14164469 -0.33908257
1.9451989 -0.14206134 -0.37445432
1.9386024 -0.14161362 -0.40738449
2.0742836 -0.060548648 -0.4712379
2.0855968 -0.060951743 -0.51036721
2.080802 -0.060920659 -0.54557848
2.081301 -0.061007984 -0.58198613
2.057909 -0.24903427 0.066846363
2.1183207 -0.25634488 0.030987022
2.0827937 -0.25204563 -0.0068839849
2.1075745 -0.16157691 -0.031914052
2.1021957 -0.25439355 -0.044503879
2.104687 -0.16135556 -0.069286913
2.0971601 -0.16077849 -0.10632847
2.1765306 -0.16686343 -0.14904605
2.1539457 -0.070324615 -0.17267543
2.1187513 -0.069212571 -0.20737059
1.9425142 -0.14899078 -0.30532691
1.929139 -0.14799878 -0.33736485
1.9427067 -0.14903966 -0.37407723
1.9302634 -0.14811893 -0.40574345
2.0448084 -0.067190096 -0.46459451
2.0562344 -0.067637391 -0.50323915
2.0670295 -0.068100832 -0.54202914
2.088764 -0.068889894 -0.58413965
2.0530152 -0.25608036 0.066717446
2.107445 -0.2628696 0.030841816
2.0977328 -0.26165816 -0.0069364845
2.0870347 -0.16769877 -0.031612121
2.0893443 -0.2606118 -0.044251729
2.1180291 -0.17018925 -0.069746196
2.1304042 -0.17118363 -0.10804508
2.154026 -0.17308171 -0.14754742
2.1616426 -0.078508176 -0.17331438
2.1125159 -0.076760881 -0.20678645
1.9577112 -0.15737607 -0.3078042
1.948223 -0.15664753 -0.34080032
1.9578099 -0.15741839 -0.37709397
1.9355611 -0.15566346 -0.40697423
2.0737841 -0.075752176 -0.4712379
2.0598555 -0.075315386 -0.50418961
2.0706327 -0.075818002 -0.54304326
2.0750234 -0.076051295 -0.58037102
2.0859082 -0.2668409 0.067813285
2.1105759 -0.26999652 0.030899899
2.0988843 -0.26850086 -0.006943047
2.070555 -0.17292309 -0.031370576
2.0885153 -0.26717439 -0.044251729
2.0676842 -0.17268334 -0.068105884
2.0781024 -0.17355342 -0.10541968
2.1800656 -0.086036004 -0.13604157
2.1475065 -0.17934972 -0.1471387
2.1255281 -0.083883688 -0.17043911
2.0983417 -0.082847454 -0.20542346
1.9690213 -0.16451268 -0.30966216
1.9536115 -0.16325952 -0.34183097
1.9553484 -0.16340467 -0.37671688
1.9233586 -0.16076514 -0.40451267
2.052099 -0.081416272 -0.46636608
2.0499027 -0.081400804 -0.50181359
2.064585 -0.082092106 -0.54152209
2.0574522 -0.081880428 -0.57552558
2.1027529 -0.27683258 0.068393439
2.1056068 -0.27720833 0.030841816
2.1078005 -0.27749711 -0.0069758589
2.0918214 -0.18242197 -0.031702701
2.1073463 -0.27743733 -0.044671975
2.0929251 -0.18251823 -0.068958849
2.1192403 -0.18481308 -0.1075402
2.2196212 -0.095746271 -0.1385309
2.1408713 -0.18669946 -0.14672998
2.1311817 -0.091931321 -0.17091833
2.1000125 -0.09062352 -0.20561817
1.9526578 -0.17035457 -0.30718488
1.9431859 -0.16956238 -0.34011322
1.9390827 -0.16920435 -0.37370011
1.9208063 -0.16764332 -0.40410241
2.0517867 -0.088937044 -0.46636608
2.0515316 -0.088997729 -0.50228876
2.0565388 -0.089322835 -0.53949392
2.0686846 -0.089922711 -0.57875586
2.0867412 -0.28250927 0.030580444
2.0948777 -0.28361082 -0.0069364845
2.0552907 -0.18682902 -0.031159226
2.1122599 -0.28596404 -0.044798046
2.0544186 -0.18674973 -0.06771221
2.0767744 -0.18878192 -0.10541968
2.1933341 -0.1026676 -0.13691284
2.1401725 -0.1945449 -0.14672998
2.1228647 -0.099369012 -0.17027938
2.0718298 -0.097016357 -0.20289217
1.9579237 -0.17804711 -0.30811387
1.9543245 -0.17775419 -0.34217453
1.9580102 -0.17808942 -0.37747106
1.9357743 -0.17610104 -0.40738449
2.0436542 -0.09609022 -0.46459451
2.0550725 -0.096698992 -0.50323915
2.054265 -0.096768789 -0.53898692
2.0471766 -0.096506499 -0.57283372
2.0699966 -0.28686744 0.030348115
2.1038816 -0.29156336 -0.0069692968
2.0785854 -0.19553247 -0.031521544
2.1133316 -0.29287297 -0.044840071
2.0737231 -0.19507506 -0.068368331
2.1020238 -0.19773731 -0.10673238
2.1989815 -0.10985644 -0.13728623
2.1296179 -0.20033309 -0.14604878
2.1324978 -0.10653505 -0.17107806
2.0874188 -0.10431954 -0.20444988
1.9534203 -0.18382697 -0.30749455
1.94591 -0.18315446 -0.34080032
1.945708 -0.18313546 -0.3752085
1.9176719 -0.18053038 -0.40369216
2.0316548 -0.10192373 -0.46193716
2.0334156 -0.10208322 -0.49801195
2.046222 -0.10283355 -0.53695875
2.0372446 -0.10245368 -0.57014185
2.1245072 -0.1139063 0.043340091
2.0629919 -0.29360712 0.030260991
2.100975 -0.11264462 0.0055449745
2.0988388 -0.29870892 -0.0069561717
2.0579519 -0.20120367 -0.031219613
2.0710046 -0.20247982 -0.068302721
2.1587465 -0.11574205 -0.096505359
2.0734534 -0.20271923 -0.10531871
2.1726518 -0.11652562 -0.13566817
2.1169541 -0.20697224 -0.14523135
2.1221392 -0.11381648 -0.17027938
2.0731091 -0.11122314 -0.20308688
1.9841974 -0.19406268 -0.31244913
1.9687566 -0.1925872 -0.3449229
1.933295 -0.18911828 -0.37294593
1.9403753 -0.18984509 -0.40861523
2.0604806 -0.11094234 -0.46858054
2.0524268 -0.11058056 -0.50276399
2.0458314 -0.11033264 -0.53695875
2.050319 -0.11064643 -0.57391047
2.1120975 -0.12100601 0.043095693
2.0805809 -0.11920036 0.0054922653
2.0572007 -0.20874509 -0.031219613
2.0722375 -0.21027087 -0.068368331
2.1383605 -0.12251065 -0.095613442
2.0905817 -0.21213228 -0.10622749
2.1841671 -0.12517327 -0.13641497
2.1141961 -0.21452843 -0.14509511
2.1097658 -0.12090936 -0.16932096
2.0528152 -0.1176815 -0.20113975
1.9598835 -0.19893937 -0.3087332
1.9719578 -0.20019977 -0.34560999
1.9540838 -0.19838513 -0.37709397
1.9260343 -0.19557141 -0.40574345
2.0250118 -0.11647768 -0.46060848
2.0306733 -0.11687443 -0.49753675
2.0376873 -0.11738518 -0.53493053
2.0422077 -0.11771711 -0.57175696
2.0976686 -0.1278946 0.042810559
2.0841227 -0.1270687 0.0055028074
2.0623882 -0.21691123 -0.031310193
2.0694649 -0.21765551 -0.068302721
2.1857603 -0.13326554 -0.097754039
2.0917766 -0.22000213 -0.10632847
2.1737318 -0.13257024 -0.13579264
2.1114111 -0.22206719 -0.14495887
2.1391571 -0.13046162 -0.171717
2.0642908 -0.12593187 -0.20230803
1.9827216 -0.20860226 -0.31244913
1.9574946 -0.20598269 -0.34320515
1.978737 -0.20821798 -0.38199618
1.9389316 -0.20406355 -0.40861523
1.9895307 -0.12175453 -0.45263639
2.0263529 -0.12407897 -0.49658635
2.0411055 -0.12508957 -0.53594464
2.0475304 -0.12555505 -0.57337207
2.107234 -0.13512377 0.043014225
2.0996804 -0.1346394 0.0055449745
2.0517559 -0.22231223 -0.031159226
2.07672 -0.22501715 -0.068565175
2.1474466 -0.13770235 -0.096059397
2.0851176 -0.22592704 -0.10602555
2.1613524 -0.13863192 -0.13504584
2.1007843 -0.22762457 -0.14427766
2.1168518 -0.13577761 -0.1699599
2.0678577 -0.1326713 -0.20269746
2.0036645 -0.21717218 -0.31585541
2.0058079 -0.2174399 -0.35179389
1.9897892 -0.21570341 -0.38425875
1.9986089 -0.2166948 -0.42133319
1.9677287 -0.12662648 -0.44776458
2.0085049 -0.12932087 -0.49230954
2.0445638 -0.13175009 -0.53695875
2.0452037 -0.131863 -0.57283372
2.0748045 -0.14068192 0.042362496
2.0712371 -0.14044003 0.0054711821
2.084712 -0.23361677 -0.031672508
2.0679355 -0.23173675 -0.068302721
2.1828091 -0.14800517 -0.097664848
2.0664103 -0.23156585 -0.10511675
2.1648128 -0.14682288 -0.13529478
2.1078677 -0.23621166 -0.14482263
2.1421976 -0.14528906 -0.17203648
2.0613999 -0.13984531 -0.20211332
2.0283816 -0.22737598 -0.31988102
2.0226195 -0.2267658 -0.35488582
2.0377827 -0.22846583 -0.39368612
2.0230899 -0.22685429 -0.42666653
1.9555764 -0.13304342 -0.44510722
1.9770055 -0.13457063 -0.48470628
2.0016031 -0.13635023 -0.5258038
2.0158808 -0.13739353 -0.56475806
2.086242 -0.14914101 0.042606894
2.0727031 -0.14817315 0.0054764529
2.0838418 -0.24125606 -0.031672508
2.0829575 -0.24115367 -0.068827622
2.1463795 -0.15344012 -0.096059397
2.0972948 -0.24281359 -0.10673238
2.1602781 -0.15447159 -0.13504584
2.0931129 -0.24232943 -0.14386895
2.1535819 -0.15399279 -0.1729949
2.0827131 -0.14896181 -0.20425516
2.0471623 -0.23708193 -0.32297766
2.057004 -0.23825808 -0.36106971
2.0564425 -0.23819304 -0.39745703
2.0436339 -0.2367456 -0.43117934
1.9472942 -0.13965201 -0.44333565
1.9900632 -0.14278905 -0.4880327
1.9953009 -0.14326988 -0.52428263
2.0249698 -0.14547127 -0.56744993
2.1006272 -0.15680394 0.08025974
2.1655247 -0.16164829 0.04423622
2.0742218 -0.15483288 0.0054817237
2.0612299 -0.24520294 -0.031340387
2.0921142 -0.2488769 -0.069155686
2.1159997 -0.15795144 -0.094721526
2.0965216 -0.24940123 -0.10673238
2.1438575 -0.16006854 -0.13405012
2.0883787 -0.24843253 -0.14359647
2.1510994 -0.16060925 -0.17283517
2.08025 -0.15535587 -0.20406045
2.0640657 -0.24561335 -0.3257646
2.0562453 -0.24471916 -0.36106971
2.0615351 -0.24534871 -0.39858833
2.066205 -0.24594107 -0.43610242
1.9390663 -0.14518642 -0.44156408
1.9508588 -0.14613786 -0.47852868
1.9678315 -0.1475129 -0.51718402
2.0033741 -0.15024759 -0.56152779
2.0736406 -0.16243425 0.0054817237
2.0682571 -0.25373009 -0.031461157
2.095156 -0.25703001 -0.069286913
2.109431 -0.16523781 -0.094453946
2.0856805 -0.25586757 -0.10622749
2.1631565 -0.16948429 -0.13529478
2.0735905 -0.2543844 -0.1426428
2.1584463 -0.16911525 -0.17347412
2.0836353 -0.16329035 -0.20444988
2.0415788 -0.25052959 -0.32235831
2.0533791 -0.25201401 -0.36072615
2.0567231 -0.25242445 -0.39783412
2.0633469 -0.25327393 -0.43569216
1.9346324 -0.15198699 -0.4406783
1.9561204 -0.1537438 -0.47995427
1.9537766 -0.15366253 -0.51363474
1.9682457 -0.15486965 -0.55183697
2.0730312 -0.17003343 0.0054817237
2.0613613 -0.26055661 -0.031370576
2.0882504 -0.26395541 -0.069090076
2.1147852 -0.17345814 -0.094721526
2.0688753 -0.26150638 -0.10541968
2.1366582 -0.17528975 -0.13367671
2.1518512 -0.17653619 -0.1729949
2.0949259 -0.17190288 -0.20561817
2.0720112 -0.26197624 -0.32731292
2.0719886 -0.26201013 -0.36416164
2.0752702 -0.26242509 -0.40160507
2.0759988 -0.26255405 -0.43856394
1.9418374 -0.15971625 -0.44244987
1.9516714 -0.16059367 -0.47900388
1.9763379 -0.16272755 -0.51971924
1.9676648 -0.16208258 -0.55183697
2.0441711 -0.17413311 0.041792229
2.0585375 -0.17535691 0.0054448275
2.0625157 -0.26728827 -0.03140077
2.0695698 -0.26820245 -0.068499558
2.1022849 -0.17908356 -0.094186373
2.0918143 -0.27108517 -0.10663141
2.1440525 -0.18267924 -0.13417457
2.1651909 -0.18448028 -0.17411307
2.1399918 -0.18237086 -0.2100966
2.0143528 -0.26111817 -0.3183327
2.0828788 -0.2700381 -0.36622292
2.0724876 -0.26869091 -0.40122798
2.0712812 -0.26857126 -0.43774343
1.9238367 -0.16432208 -0.43846384
1.9550285 -0.16705503 -0.47995427
1.9546131 -0.16712262 -0.5141418
1.9537119 -0.16711426 -0.54806834
2.0614445 -0.18321739 0.042158831
2.0658495 -0.18360887 0.0054659112
2.111078 -0.28145283 -0.032155596
2.1200891 -0.28265423 -0.070205487
2.1155455 -0.18802579 -0.094810717
2.1007061 -0.28007007 -0.10713629
2.1354156 -0.18982935 -0.13367671
2.1724434 -0.19312097 -0.17475201
2.1611183 -0.19215225 -0.21223845
1.9232215 -0.17137219 -0.43846384
1.9582732 -0.17456444 -0.48090467
1.9482064 -0.17376988 -0.51262063
1.9645975 -0.175301 -0.55129862
2.0786788 -0.19243062 0.042525429
2.079103 -0.19246987 0.0055028074
2.137377 -0.10408635 -0.019645847
2.0902197 -0.28647307 -0.031853668
2.1031957 -0.28825146 -0.069680586
2.1009157 -0.19448915 -0.094186373
2.136693 -0.1978388 -0.13380118
2.1657655 -0.20053066 -0.17427279
2.1504893 -0.19915408 -0.21126488
1.9186965 -0.17805955 -0.43757805
1.9634235 -0.18227945 -0.48233029
1.961041 -0.18216182 -0.51616997
1.9466805 -0.18089643 -0.54645324
2.1523693 -0.11159541 0.056475118
2.0740831 -0.19857886 0.042443961
2.0645518 -0.19766632 0.0054659112
2.1290505 -0.1103864 -0.019572405
2.0932703 -0.29359376 -0.031914052
2.1303668 -0.11045464 -0.057388127
2.1200955 -0.29735619 -0.070271097
2.0983055 -0.20089799 -0.094097182
2.1241388 -0.20340876 -0.13305438
2.1790166 -0.2086639 -0.17539096
2.1657045 -0.20742728 -0.21282259
1.9220104 -0.18445908 -0.43846384
1.953172 -0.18751851 -0.47995427
1.9469784 -0.18702677 -0.51262063
1.9633588 -0.18866943 -0.55129862
2.1239984 -0.11793177 0.055741675
2.0892596 -0.20776239 0.042769827
2.1046824 -0.11685928 0.017880475
2.0817251 -0.20701313 0.0055133491
2.1485999 -0.11929773 -0.019756012
2.1499095 -0.11937044 -0.057925973
2.0836375 -0.20720331 -0.093472838
2.1094747 -0.20980982 -0.13218312
2.1643505 -0.21526781 -0.17427279
2.1332383 -0.21221097 -0.20970717
2.6117058 -0.37625939 -0.55302542
1.9174401 -0.19111548 -0.43757805
1.9795355 -0.19737446 -0.4866071
1.9770815 -0.19723433 -0.52073336
1.9454042 -0.19414277 -0.54645324
2.1275434 -0.12595212 0.055846453
2.0646157 -0.21295658 0.042281028
2.0842757 -0.12339064 0.017710831
2.0630474 -0.21279483 0.0054659112
2.1201985 -0.12551729 -0.019498963
2.1574407 -0.12772207 -0.058141112
2.0908141 -0.21565883 -0.093829609
2.110677 -0.21774486 -0.13230759
2.1476822 -0.22156245 -0.1729949
2.152246 -0.22207122 -0.21165431
2.6006272 -0.38439813 -0.55097419
1.9167267 -0.19814196 -0.43757805
1.9672042 -0.20342951 -0.48375589
1.9378576 -0.2004973 -0.51059246
1.9350998 -0.20028025 -0.54376131
2.0350449 -0.2163699 0.077975303
2.1131692 -0.1317644 0.055479731
2.0559828 -0.21859607 0.042118095
2.1038382 -0.13118258 0.017880475
2.0683351 -0.21990937 0.0054817237
2.1098135 -0.13155515 -0.019407161
2.1550333 -0.1343748 -0.058087327
2.0960865 -0.22285996 -0.094097182
2.1060128 -0.22395252 -0.13205865
2.1370633 -0.22725442 -0.17219622
2.1752896 -0.2313578 -0.21399088
2.6090844 -0.39402786 -0.55302542
1.9316096 -0.20581569 -0.44112119
1.9665555 -0.20960864 -0.48375589
1.962227 -0.20925118 -0.51718402
1.9440377 -0.20738012 -0.54645324
2.0560904 -0.22623165 0.078812927
2.1007023 -0.13871825 0.055165399
2.0472176 -0.22525537 0.041955162
2.0734096 -0.136916 0.017626008
2.063539 -0.22705124 0.0054711821
2.1212904 -0.14007778 -0.019517325
2.1525316 -0.14214076 -0.058033545
2.0833395 -0.22922988 -0.093562029
2.0932729 -0.23035982 -0.13131185
2.0926199 -0.23028795 -0.16868201
1.9599214 -0.21610025 -0.44776458
1.9734981 -0.21766694 -0.48565671
1.9576008 -0.21601731 -0.51616997
1.945179 -0.21471532 -0.54699159
2.0453186 -0.23263678 0.078432195
2.114141 -0.14739011 0.05553212
2.0404179 -0.23207936 0.041832965
2.1008251 -0.14646177 0.01786351
2.0626931 -0.23461296 0.0054711821
2.1107874 -0.14715631 -0.019425521
2.1200852 -0.14780451 -0.057172991
2.098367 -0.23867056 -0.094275564
2.1023312 -0.23915862 -0.13193418
2.1056275 -0.2395336 -0.16980016
2.0075612 -0.22880359 -0.45883688
2.0421751 -0.23282078 -0.50276399
1.9644847 -0.22406781 -0.51819813
1.9405515 -0.22140661 -0.54591483
2.0484221 -0.24059796 0.078584485
2.1076047 -0.15469876 0.055374954
2.0415394 -0.23978956 0.041873697
2.0663667 -0.15167187 0.017575115
2.0836689 -0.24473789 0.0055291615
2.0783212 -0.15254934 -0.019131752
2.1195292 -0.15557402 -0.057172991
2.1153376 -0.24845754 -0.09507829
2.0935106 -0.24593088 -0.13143632
2.0396376 -0.24003536 -0.46636608
2.0567431 -0.24212122 -0.50656557
2.0308986 -0.23918658 -0.53594464
1.9569435 -0.23054586 -0.55076021
2.0397196 -0.24607457 0.078279898
2.0951476 -0.1604035 0.055060621
2.0328352 -0.24524407 0.041710764
2.0738564 -0.15877345 0.017642973
2.0769331 -0.2505641 0.0055133491
2.0977724 -0.16060446 -0.019315358
2.1270037 -0.16284241 -0.057388127
2.0907431 -0.25223014 -0.094007991
2.0986729 -0.25322396 -0.13180973
2.0601723 -0.24901628 -0.4712379
2.0694733 -0.2502138 -0.50989199
2.0435817 -0.24719191 -0.53949392
1.9753318 -0.23900634 -0.556144
2.0905597 -0.16776168 0.054955844
2.0319228 -0.25269315 0.041710764
2.0612993 -0.1654136 0.017541187
2.0938632 -0.26039612 0.0055607869
2.0652735 -0.16573253 -0.019021587
2.1024783 -0.1687181 -0.056742713
2.1076491 -0.26211059 -0.094810717
2.0937688 -0.26042151 -0.13156079
2.0844057 -0.25970024 -0.4769955
2.0743256 -0.25851789 -0.51131761
2.0714591 -0.25827077 -0.54709959
2.056767 -0.26344135 0.042240296
2.0666578 -0.17346938 0.01759208
2.0928948 -0.26806879 0.0055607869
2.09056 -0.17547566 -0.019260276
2.1078224 -0.17692462 -0.056904066
2.0690198 -0.26501074 -0.093116075
2.0710211 -0.26530382 -0.13019165
2.0873089 -0.26783469 -0.47788128
2.0829988 -0.26735556 -0.51369363
2.0858498 -0.26783249 -0.55115592
2.0346622 -0.26133198 -0.57337207
2.1053035 -0.18337557 0.055374954
2.0341208 -0.26703858 0.041792229
2.0501637 -0.17857279 0.017456364
2.0940251 -0.27490279 0.0055660577
2.0820289 -0.18134831 -0.019186834
2.1052644 -0.18337217 -0.056850284
2.095911 -0.27515039 -0.094364755
2.1038227 -0.27622634 -0.13230759
2.0922582 -0.27515373 -0.47920996
2.0840747 -0.27415153 -0.51416886
2.069653 -0.27236465 -0.54709959
2.0777543 -0.27350456 -0.58575475
2.0608125 -0.18711336 0.054222398
2.0634375 -0.1873517 0.017575115
2.1009316 -0.28364629 0.0055871415
2.0753751 -0.18843558 -0.019131752
2.072721 -0.18819459 -0.055989731
2.0929086 -0.28256309 -0.094275564
2.1298907 -0.28804812 -0.48806781
2.1157842 -0.28621554 -0.52224725
2.0993156 -0.2840997 -0.55521226
2.0767379 -0.28111807 -0.58575475
2.0839982 -0.19692236 0.054851063
2.0527816 -0.19397262 0.017490294
2.1097829 -0.29271895 0.0056134961
2.0726795 -0.19585282 -0.01911339
2.0839596 -0.19691871 -0.056312438
2.1096704 -0.29270333 -0.09507829
2.4359734 -0.33853915 -0.55848777
2.0829306 -0.28966036 -0.55115592
2.0585232 -0.28633943 -0.58090937
2.0575013 -0.2009421 0.054170009
2.0939617 -0.20450294 0.017846545
2.1207337 -0.30103204 0.0056451214
2.0780253 -0.20294653 -0.019168472
2.0873103 -0.20385334 -0.056420006
2.5024803 -0.35579908 -0.57398903
2.0896719 -0.29729262 -0.55318409
2.0706749 -0.20989326 0.05453673
2.0693214 -0.20975605 0.017642973
2.0514011 -0.20793958 -0.018929785
2.0945055 -0.21230884 -0.056635145
2.0619383 -0.21664558 0.054327175
2.0844505 -0.21901093 0.017778687
2.0784707 -0.21838264 -0.019186834
2.0797949 -0.21852177 -0.056258652
2.0334196 -0.22011001 0.053593732
2.0678458 -0.22383651 0.017642973
2.0459616 -0.22146764 -0.018893063
2.0910242 -0.22634549 -0.056581359
2.0246515 -0.22667161 0.053384177
2.0769489 -0.23252662 0.017727794
2.0570612 -0.23030005 -0.019003227
2.1001148 -0.23512016 -0.056850284
2.0297654 -0.23477998 0.053541344
2.0721095 -0.23967785 0.017693866
2.0840166 -0.24105515 -0.019260276
2.1091692 -0.24396451 -0.057119206
2.0288913 -0.24221787 0.053541344
2.0573163 -0.24561137 0.017575115
2.0533319 -0.24513569 -0.018984867
2.0864239 -0.24908637 -0.056527574
2.0380425 -0.24980681 0.053803287
2.0843256 -0.25547978 0.017812617
2.0743873 -0.25426164 -0.019186834
2.0856311 -0.25563982 -0.056527574
2.0351298 -0.25702441 0.053750899
2.0655177 -0.2608622 0.017659938
2.0575683 -0.25985825 -0.019039948
2.0906305 -0.26403382 -0.056688931
2.0540004 -0.26705962 0.054274786
2.0942962 -0.27229884 0.017914403
2.0784175 -0.27023432 -0.019241914
2.1094747 -0.27427235 -0.057226773
2.0491877 -0.2729831 0.054170009
2.0855007 -0.27782056 0.017846545
2.0795407 -0.27702659 -0.019260276
2.1006756 -0.27984211 -0.057011638
2.0719433 -0.28374714 0.054798674
2.0864499 -0.28573379 0.01786351
2.0824742 -0.28518933 -0.019296996
2.1016166 -0.28781083 -0.05706542
2.1051929 -0.29616523 0.018033154
2.0873561 -0.2936559 -0.019352078
2.0926285 -0.29439762 -0.056850284
2.1121702 -0.30391675 0.018101012
2.1062186 -0.30306038 -0.019535685
