# .PCD v0.7 - Point Cloud Data file format
VERSION 0.7
FIELDS x y z normal_x normal_y normal_z curvature
SIZE 4 4 4 4 4 4 4
TYPE F F F F F F F
COUNT 1 1 1 1 1 1 1
WIDTH 275
HEIGHT 1
VIEWPOINT 0 0 0 1 0 0 0
POINTS 275
DATA ascii
-0.47586012 0.56565285 -0.67092973 0 0 0 6.6327559e-38
-0.4808948 0.532444 -0.87843001 0 0 0 6.6327559e-38
-0.49597788 0.42863464 -1.0785331 0 0 0 6.6327559e-38
-0.43541288 0.54153442 -0.6699152 0 0 0 6.6327559e-38
-0.44085991 0.50639248 -0.87695163 0 0 0 6.6327559e-38
-0.45250249 0.42827511 -1.0790817 0 0 0 6.6327559e-38
-0.39240479 0.53504372 -0.6699152 0 0 0 6.6327559e-38
-0.38954568 0.55512714 -0.881091 0 0 0 6.6327559e-38
-0.39757633 0.50256729 -1.0865791 0 0 0 6.6327559e-38
-0.34416127 0.60241222 -0.46248573 0 0 0 6.6327559e-38
-0.35494423 0.53329945 -0.67014068 0 0 0 6.6327559e-38
-0.35509717 0.53366375 -0.87990832 0 0 0 6.6327559e-38
-0.36206138 0.48902321 -1.0858476 0 0 0 6.6327559e-38
-0.29210162 0.65084171 -0.46465302 0 0 0 6.6327559e-38
-0.31480229 0.50876713 -0.66912615 0 0 0 6.6327559e-38
-0.31557977 0.50521278 -0.87828213 0 0 0 6.6327559e-38
-0.31798935 0.49013042 -1.0865791 0 0 0 6.6327559e-38
-0.25353217 0.61424065 -0.46349198 0 0 0 6.6327559e-38
-0.27384889 0.49001122 -0.66844982 0 0 0 6.6327559e-38
-0.27495873 0.48450375 -0.87724733 0 0 0 6.6327559e-38
-0.27999163 0.45372581 -1.0838361 0 0 0 6.6327559e-38
-0.21578169 0.61205673 -0.46364677 0 0 0 6.6327559e-38
-0.23189044 0.51546288 -0.6702534 0 0 0 6.6327559e-38
-0.23761702 0.48237991 -0.87754297 0 0 0 6.6327559e-38
-0.2368511 0.48697376 -1.0874934 0 0 0 6.6327559e-38
-0.17453241 0.59293938 -0.46318236 0 0 0 6.6327559e-38
-0.18495107 0.53184605 -0.67160606 0 0 0 6.6327559e-38
-0.19315076 0.48499489 -0.87828213 0 0 0 6.6327559e-38
-0.19304001 0.48564529 -1.088042 0 0 0 6.6327559e-38
-0.129637 0.63185215 -0.46496263 0 0 0 6.6327559e-38
-0.14743352 0.52943993 -0.67183155 0 0 0 6.6327559e-38
-0.15270829 0.50029564 -0.87990832 0 0 0 6.6327559e-38
-0.15123701 0.50876236 -1.0907849 0 0 0 6.6327559e-38
-0.071626425 0.70688438 -0.46821359 0 0 0 6.6327559e-38
-0.097141027 0.56318092 -0.67419875 0 0 0 6.6327559e-38
-0.093815565 0.58310413 -0.88670868 0 0 0 6.6327559e-38
-0.10347724 0.52868366 -1.093345 0 0 0 6.6327559e-38
-0.044792652 0.606534 -0.67712951 0 0 0 6.6327559e-38
-0.045594931 0.60328197 -1.1010253 0 0 0 6.6327559e-38
0.0086286068 0.65358734 -0.68028581 0 0 0 6.6327559e-38
-0.016240597 0.52039051 -0.88316071 0 0 0 6.6327559e-38
0.05360651 0.68784618 -0.68265295 0 0 0 6.6327559e-38
0.0035736561 0.42335606 -0.8763603 0 0 0 6.6327559e-38
-0.43561101 0.43991184 -1.0118544 0 0 0 6.6327559e-38
-0.42727983 0.49532604 -1.225919 0 0 0 6.6327559e-38
-0.3690964 0.58838558 -0.2505917 0 0 0 6.6327559e-38
-0.37537396 0.54764652 -1.021793 0 0 0 6.6327559e-38
-0.38625896 0.47700787 -1.2246814 0 0 0 6.6327559e-38
-0.3324641 0.54017448 -0.24970919 0 0 0 6.6327559e-38
-0.33576155 0.51928329 -1.0199081 0 0 0 6.6327559e-38
-0.35000134 0.42907238 -1.2203494 0 0 0 6.6327559e-38
-0.29751122 0.5224514 -0.24945705 0 0 0 6.6327559e-38
-0.30530381 0.4740715 -1.0164809 0 0 0 6.6327559e-38
-0.3103261 0.44289017 -1.2224122 0 0 0 6.6327559e-38
-0.25522435 0.51150894 -0.249373 0 0 0 6.6327559e-38
-0.25897896 0.48873043 -1.0183659 0 0 0 6.6327559e-38
-0.26412153 0.45753193 -1.2246814 0 0 0 6.6327559e-38
-0.20534647 0.54576397 -0.25025553 0 0 0 6.6327559e-38
0.12166452 -0.41618443 -0.42695755 0 0 0 6.6327559e-38
-0.21914721 0.46390915 -1.0168236 0 0 0 6.6327559e-38
-0.20488584 0.54849529 -1.2349954 0 0 0 6.6327559e-38
0.14286923 -0.50867844 -0.42362919 0 0 0 6.6327559e-38
-0.17168641 0.48411751 -1.0192226 0 0 0 6.6327559e-38
-0.16421914 0.52743721 -1.2335514 0 0 0 6.6327559e-38
0.14536715 -0.65654278 -0.41805613 0 0 0 6.6327559e-38
0.19480324 -0.43206787 -0.81707883 0 0 0 6.6327559e-38
-0.13293457 0.48951054 -1.0202508 0 0 0 6.6327559e-38
0.18445659 -0.47886658 -1.0077646 0 0 0 6.6327559e-38
-0.12739944 0.52103043 -1.2335514 0 0 0 6.6327559e-38
0.17871666 -0.6885519 -0.41712731 0 0 0 6.6327559e-38
0.22066975 -0.50118637 -0.81249601 0 0 0 6.6327559e-38
-0.081323147 0.53094387 -1.0245347 0 0 0 6.6327559e-38
0.20929718 -0.55174446 -1.0017301 0 0 0 6.6327559e-38
-0.083063364 0.5212431 -1.2343765 0 0 0 6.6327559e-38
0.24195695 -0.56353855 -0.42239073 0 0 0 6.6327559e-38
0.2536912 -0.51213169 -0.61862606 0 0 0 6.6327559e-38
0.24316072 -0.55740929 -0.80880016 0 0 0 6.6327559e-38
-0.034468651 0.57916355 -1.0293326 0 0 0 6.6327559e-38
0.23652053 -0.58650208 -0.99916995 0 0 0 6.6327559e-38
-0.036613464 0.56742001 -1.239946 0 0 0 6.6327559e-38
0.29627395 -0.50631618 -0.42502245 0 0 0 6.6327559e-38
0.28019071 -0.57560444 -0.61546981 0 0 0 6.6327559e-38
0.28303838 -0.56249428 -0.8090958 0 0 0 6.6327559e-38
0.26998615 -0.61872959 -0.9969756 0 0 0 6.6327559e-38
0.33681369 -0.50964737 -0.42525467 0 0 0 6.6327559e-38
-0.47905731 0.56384182 -0.60071045 0 0 0 6.6327559e-38
0.31451344 -0.604146 -0.61434257 0 0 0 6.6327559e-38
-0.48256528 0.5396595 -0.80967158 0 0 0 6.6327559e-38
0.31420803 -0.60461235 -0.80658263 0 0 0 6.6327559e-38
0.30233335 -0.65493584 -0.99441552 0 0 0 6.6327559e-38
0.38153577 -0.47097492 -0.42711234 0 0 0 6.6327559e-38
-0.44417226 0.54459381 -0.6000036 0 0 0 6.6327559e-38
0.34545231 -0.62176037 -0.61377895 0 0 0 6.6327559e-38
-0.44687605 0.5263586 -0.80912662 0 0 0 6.6327559e-38
0.35211062 -0.59311867 -0.808061 0 0 0 6.6327559e-38
0.33914447 -0.64730644 -0.9958784 0 0 0 6.6327559e-38
-0.40145302 0.53615952 -0.59990263 0 0 0 6.6327559e-38
0.38371968 -0.63304615 -0.61366624 0 0 0 6.6327559e-38
-0.39582646 0.57317162 -0.81280506 0 0 0 6.6327559e-38
0.38859844 -0.6121788 -0.80732179 0 0 0 6.6327559e-38
0.37873101 -0.6527586 -0.99624413 0 0 0 6.6327559e-38
0.4802165 -0.40859032 -0.4303633 0 0 0 6.6327559e-38
-0.35815752 0.53151703 -0.6000036 0 0 0 6.6327559e-38
0.42481184 -0.6328392 -0.61422986 0 0 0 6.6327559e-38
-0.36007357 0.51921749 -0.80953532 0 0 0 6.6327559e-38
0.43406963 -0.59457397 -0.8093915 0 0 0 6.6327559e-38
0.42977571 -0.61195469 -1.0009986 0 0 0 6.6327559e-38
-0.31005049 0.59662533 -0.1802827 0 0 0 6.6327559e-38
-0.30959058 0.59951782 -0.39203531 0 0 0 6.6327559e-38
-0.32477391 0.50402069 -0.59889287 0 0 0 6.6327559e-38
0.47253489 -0.5829792 -0.61761159 0 0 0 6.6327559e-38
-0.32453167 0.50554371 -0.80899036 0 0 0 6.6327559e-38
0.4799571 -0.55254936 -0.81323516 0 0 0 6.6327559e-38
0.47655797 -0.56612587 -1.0061188 0 0 0 6.6327559e-38
-0.27647853 0.53046036 -0.1793769 0 0 0 6.6327559e-38
-0.27022409 0.56888866 -0.39124796 0 0 0 6.6327559e-38
-0.27901614 0.51486778 -0.59980166 0 0 0 6.6327559e-38
-0.28165627 0.49864674 -0.80899036 0 0 0 6.6327559e-38
-0.23482609 0.5154953 -0.17925613 0 0 0 6.6327559e-38
-0.23762357 0.49869537 -0.38914835 0 0 0 6.6327559e-38
-0.2347945 0.51568508 -0.60020554 0 0 0 6.6327559e-38
-0.24142849 0.47584629 -0.80790043 0 0 0 6.6327559e-38
0.16016746 -0.13438511 -1.1724926 0 0 0 6.6327559e-38
-0.19687927 0.51616859 -0.3899357 0 0 0 6.6327559e-38
-0.19266272 0.54100895 -0.60182118 0 0 0 6.6327559e-38
-0.2004292 0.49525642 -0.80967158 0 0 0 6.6327559e-38
0.19030094 -0.16319942 -1.1702236 0 0 0 6.6327559e-38
-0.14931679 0.53559589 -0.60192215 0 0 0 6.6327559e-38
-0.1552043 0.50166607 -0.81062526 0 0 0 6.6327559e-38
0.237535 -0.14088821 -1.173524 0 0 0 6.6327559e-38
-0.10179901 0.55362415 -0.60323483 0 0 0 6.6327559e-38
-0.1018939 0.55308914 -0.81471241 0 0 0 6.6327559e-38
0.20884871 -0.46013546 -0.9458825 0 0 0 6.6327559e-38
0.27717137 -0.15372467 -1.1731114 0 0 0 6.6327559e-38
-0.051056862 0.62368298 -0.60717297 0 0 0 6.6327559e-38
-0.038759947 0.6917944 -0.82479417 0 0 0 6.6327559e-38
0.23288941 -0.51046658 -0.94211268 0 0 0 6.6327559e-38
0.23984647 -0.47972012 -1.1392816 0 0 0 6.6327559e-38
0.0023882389 0.670784 -0.61000031 0 0 0 6.6327559e-38
-0.0078635216 0.61516762 -0.82002574 0 0 0 6.6327559e-38
0.26175857 -0.56406403 -0.93817151 0 0 0 6.6327559e-38
0.26616859 -0.54490089 -1.1332996 0 0 0 6.6327559e-38
0.020655632 0.52867031 -0.81457621 0 0 0 6.6327559e-38
0.29389977 -0.60220623 -0.93560117 0 0 0 6.6327559e-38
0.28887296 -0.6236887 -1.1258734 0 0 0 6.6327559e-38
-0.46260989 0.58171463 -0.74219203 0 0 0 6.6327559e-38
0.038725853 0.42369366 -0.80776423 0 0 0 6.6327559e-38
-0.4748745 0.49784946 -0.94691944 0 0 0 6.6327559e-38
0.32854867 -0.60422993 -0.93611526 0 0 0 6.6327559e-38
-0.48511767 0.42638874 -1.1490084 0 0 0 6.6327559e-38
0.32620835 -0.61409187 -1.12773 0 0 0 6.6327559e-38
-0.42184317 0.56079483 -0.53069025 0 0 0 6.6327559e-38
-0.42596805 0.53189468 -0.73945379 0 0 0 6.6327559e-38
-0.43705332 0.45798588 -0.94420391 0 0 0 6.6327559e-38
0.3626802 -0.63288403 -0.93440169 0 0 0 6.6327559e-38
-0.4445982 0.4063015 -1.1476454 0 0 0 6.6327559e-38
0.35844564 -0.65044117 -1.124842 0 0 0 6.6327559e-38
-0.37663972 0.56807709 -0.53131461 0 0 0 6.6327559e-38
-0.37541258 0.57469177 -0.74256545 0 0 0 6.6327559e-38
-0.37799311 0.55790615 -0.95282972 0 0 0 6.6327559e-38
0.4042244 -0.63068104 -0.93542981 0 0 0 6.6327559e-38
-0.38877606 0.48640919 -1.1562128 0 0 0 6.6327559e-38
0.4022882 -0.63858032 -1.1271112 0 0 0 6.6327559e-38
-0.34185946 0.54852104 -0.53069025 0 0 0 6.6327559e-38
-0.34618092 0.51964951 -0.73945379 0 0 0 6.6327559e-38
-0.3469497 0.51475143 -0.94979471 0 0 0 6.6327559e-38
0.44604993 -0.60405731 -0.93851423 0 0 0 6.6327559e-38
-0.35486209 0.46301079 -1.1544603 0 0 0 6.6327559e-38
0.44503379 -0.60814762 -1.1312368 0 0 0 6.6327559e-38
-0.29565644 0.56141376 -0.53158218 0 0 0 6.6327559e-38
-0.30262017 0.51677322 -0.7397027 0 0 0 6.6327559e-38
-0.30404043 0.50793552 -0.94979471 0 0 0 6.6327559e-38
0.49460244 -0.57512951 -0.94194132 0 0 0 6.6327559e-38
-0.30898356 0.47587776 -1.1564075 0 0 0 6.6327559e-38
0.49160862 -0.58699608 -1.1345372 0 0 0 6.6327559e-38
-0.25160372 0.56032467 -0.53184974 0 0 0 6.6327559e-38
-0.26164746 0.4979763 -0.73895591 0 0 0 6.6327559e-38
-0.26245058 0.49309444 -0.94915575 0 0 0 6.6327559e-38
-0.26492465 0.47677994 -1.1571864 0 0 0 6.6327559e-38
0.11053658 -0.42778015 -0.36139423 0 0 0 6.6327559e-38
-0.21468008 0.55419254 -0.53184974 0 0 0 6.6327559e-38
-0.22657037 0.48203373 -0.73833358 0 0 0 6.6327559e-38
-0.22441912 0.4948616 -0.94979471 0 0 0 6.6327559e-38
-0.22694635 0.47854233 -1.1579652 0 0 0 6.6327559e-38
0.13854241 -0.48900986 -0.35962269 0 0 0 6.6327559e-38
-0.16453671 0.5882473 -0.53372276 0 0 0 6.6327559e-38
-0.17737198 0.51215839 -0.74069846 0 0 0 6.6327559e-38
-0.17888808 0.50331688 -0.95107263 0 0 0 6.6327559e-38
-0.17979693 0.49679184 -1.1604965 0 0 0 6.6327559e-38
0.17949367 -0.48978996 -0.35988513 0 0 0 6.6327559e-38
-0.11929011 0.5925703 -0.53425795 0 0 0 6.6327559e-38
-0.13412881 0.50668716 -0.74082291 0 0 0 6.6327559e-38
0.18775082 -0.45240307 -0.75122482 0 0 0 6.6327559e-38
-0.13602185 0.49588585 -0.95107263 0 0 0 6.6327559e-38
-0.13317466 0.51093102 -1.1626383 0 0 0 6.6327559e-38
0.21311617 -0.49727154 -0.35988513 0 0 0 6.6327559e-38
-0.075244904 0.62536144 -0.53604174 0 0 0 6.6327559e-38
-0.084396839 0.5728941 -0.74542814 0 0 0 6.6327559e-38
0.20665216 -0.5261097 -0.74659264 0 0 0 6.6327559e-38
-0.086690426 0.56004429 -0.95682311 0 0 0 6.6327559e-38
-0.087312222 0.55537415 -1.1677009 0 0 0 6.6327559e-38
0.25097942 -0.5119791 -0.35968831 0 0 0 6.6327559e-38
-0.022975922 0.66669083 -0.53827155 0 0 0 6.6327559e-38
0.21632504 -0.66397095 -0.54608202 0 0 0 6.6327559e-38
-0.017294168 0.69668865 -0.75376737 0 0 0 6.6327559e-38
0.23953295 -0.56218243 -0.74468529 0 0 0 6.6327559e-38
-0.048264265 0.52677822 -0.95474654 0 0 0 6.6327559e-38
0.28831577 -0.52876854 -0.35942584 0 0 0 6.6327559e-38
0.020488024 0.65868664 -0.53827155 0 0 0 6.6327559e-38
0.25626373 -0.66700554 -0.54638499 0 0 0 6.6327559e-38
0.021533012 0.66315269 -0.75214934 0 0 0 6.6327559e-38
0.27623773 -0.58085918 -0.74400413 0 0 0 6.6327559e-38
0.32913685 -0.50545788 -0.36047566 0 0 0 6.6327559e-38
0.2911582 -0.66694927 -0.54678887 0 0 0 6.6327559e-38
0.053951502 0.63066483 -0.75053126 0 0 0 6.6327559e-38
0.30957365 -0.58864403 -0.74400413 0 0 0 6.6327559e-38
0.37573838 -0.48363781 -0.36152545 0 0 0 6.6327559e-38
0.33762693 -0.64306927 -0.54850549 0 0 0 6.6327559e-38
0.078737259 0.5263443 -0.74443245 0 0 0 6.6327559e-38
0.3470428 -0.60367966 -0.74359536 0 0 0 6.6327559e-38
0.37628794 -0.65238571 -0.54850549 0 0 0 6.6327559e-38
0.088518858 0.34953594 -0.73372835 0 0 0 6.6327559e-38
0.39008737 -0.59558105 -0.74482155 0 0 0 6.6327559e-38
-0.35466743 0.60266209 -0.32120141 0 0 0 6.6327559e-38
0.41990614 -0.61781502 -0.55072695 0 0 0 6.6327559e-38
0.12987232 0.36778164 -0.73534638 0 0 0 6.6327559e-38
0.42528486 -0.59597301 -0.74536651 0 0 0 6.6327559e-38
-0.31645536 0.56428242 -0.32034084 0 0 0 6.6327559e-38
0.46835351 -0.58867931 -0.55274647 0 0 0 6.6327559e-38
0.47622323 -0.55721855 -0.7487725 0 0 0 6.6327559e-38
-0.28527761 0.52283096 -0.31937274 0 0 0 6.6327559e-38
-0.24233902 0.51578999 -0.31937274 0 0 0 6.6327559e-38
-0.19574845 0.53027344 -0.31996435 0 0 0 6.6327559e-38
0.18886805 -0.15205765 -1.105003 0 0 0 6.6327559e-38
0.17709732 -0.39866734 -0.88558054 0 0 0 6.6327559e-38
0.22124672 -0.1977787 -1.1013033 0 0 0 6.6327559e-38
0.14421105 -0.70607471 -0.47967264 0 0 0 6.6327559e-38
0.19242263 -0.48982811 -0.87871188 0 0 0 6.6327559e-38
0.20098138 -0.45217228 -1.0765747 0 0 0 6.6327559e-38
0.18440342 -0.70688534 -0.4800294 0 0 0 6.6327559e-38
0.23865056 -0.46760941 -0.68580884 0 0 0 6.6327559e-38
0.22461748 -0.52972794 -0.87615609 0 0 0 6.6327559e-38
0.22981524 -0.50758743 -1.0719016 0 0 0 6.6327559e-38
0.22775269 -0.69421959 -0.48101053 0 0 0 6.6327559e-38
0.26186371 -0.54659939 -0.68132806 0 0 0 6.6327559e-38
0.25967693 -0.55611801 -0.87471843 0 0 0 6.6327559e-38
0.25693798 -0.56888771 -1.0666442 0 0 0 6.6327559e-38
0.26300025 -0.69212246 -0.48145649 0 0 0 6.6327559e-38
0.2885108 -0.58349991 -0.67946106 0 0 0 6.6327559e-38
0.2872076 -0.58909035 -0.87264186 0 0 0 6.6327559e-38
0.28579307 -0.59599686 -1.0646971 0 0 0 6.6327559e-38
0.30793095 -0.67394638 -0.48270518 0 0 0 6.6327559e-38
0.32693028 -0.5945797 -0.67933661 0 0 0 6.6327559e-38
0.32882476 -0.58658409 -0.8736003 0 0 0 6.6327559e-38
0.32370901 -0.6089983 -1.0643077 0 0 0 6.6327559e-38
0.35676956 -0.64041901 -0.48466739 0 0 0 6.6327559e-38
0.36436725 -0.60967922 -0.67896318 0 0 0 6.6327559e-38
0.36442566 -0.60943604 -0.87248212 0 0 0 6.6327559e-38
0.36063099 -0.62600422 -1.0635288 0 0 0 6.6327559e-38
0.39607787 -0.6232233 -0.48582688 0 0 0 6.6327559e-38
0.40092611 -0.60416603 -0.67983449 0 0 0 6.6327559e-38
0.4005084 -0.60587692 -0.87344056 0 0 0 6.6327559e-38
0.39665747 -0.62245178 -1.0646971 0 0 0 6.6327559e-38
0.44443059 -0.59396935 -0.4876107 0 0 0 6.6327559e-38
0.44165158 -0.60596466 -0.6803323 0 0 0 6.6327559e-38
0.44602466 -0.58833504 -0.87567687 0 0 0 6.6327559e-38
0.44162345 -0.6068697 -1.0672284 0 0 0 6.6327559e-38
0.49059176 -0.57461548 -0.48894858 0 0 0 6.6327559e-38
0.48922539 -0.58082199 -0.68257272 0 0 0 6.6327559e-38
0.49597812 -0.55480194 -1.0734593 0 0 0 6.6327559e-38
0.18350148 -0.43955421 -0.29629916 0 0 0 6.6327559e-38
0.21547914 -0.48147297 -0.29538482 0 0 0 6.6327559e-38
0.25340056 -0.49619102 -0.29522347 0 0 0 6.6327559e-38
0.28925443 -0.49416447 -0.29549238 0 0 0 6.6327559e-38
0.33166385 -0.48968124 -0.29586887 0 0 0 6.6327559e-38
