# .PCD v0.7 - Point Cloud Data file format
VERSION 0.7
FIELDS x y z normal_x normal_y normal_z curvature
SIZE 4 4 4 4 4 4 4
TYPE F F F F F F F
COUNT 1 1 1 1 1 1 1
WIDTH 288
HEIGHT 1
VIEWPOINT 0 0 0 1 0 0 0
POINTS 288
DATA ascii
-0.51115155 0.45718575 -1.1105343 0 0 0 1.3630397e-38
-0.46063805 0.54040337 -0.68783826 0 0 0 1.3630397e-38
-0.4704622 0.47327995 -0.89809191 0 0 0 1.3630397e-38
-0.48002017 0.40651512 -1.1063284 0 0 0 1.3630397e-38
-0.40885043 0.58566284 -0.47394145 0 0 0 1.3630397e-38
-0.41382945 0.55177307 -0.68885279 0 0 0 1.3630397e-38
-0.41462648 0.54781246 -0.90415311 0 0 0 1.3630397e-38
-0.43110406 0.4356451 -1.10962 0 0 0 1.3630397e-38
-0.36895466 0.5494194 -0.47278041 0 0 0 1.3630397e-38
-0.36661685 0.56493664 -0.68997997 0 0 0 1.3630397e-38
-0.37129462 0.53531647 -0.90370959 0 0 0 1.3630397e-38
-0.38491833 0.44488144 -1.1110829 0 0 0 1.3630397e-38
-0.3276993 0.56537342 -0.47363183 0 0 0 1.3630397e-38
-0.33503366 0.51771069 -0.68761283 0 0 0 1.3630397e-38
-0.33464026 0.52166557 -0.90311825 0 0 0 1.3630397e-38
-0.34733474 0.43915939 -1.1110829 0 0 0 1.3630397e-38
-0.28185642 0.56834698 -0.47401884 0 0 0 1.3630397e-38
-0.29061043 0.51281261 -0.68772554 0 0 0 1.3630397e-38
-0.2929976 0.49903202 -0.90193558 0 0 0 1.3630397e-38
-0.30195975 0.4421711 -1.1119971 0 0 0 1.3630397e-38
-0.23724031 0.5632534 -0.47409624 0 0 0 1.3630397e-38
-0.24778891 0.49789333 -0.68727463 0 0 0 1.3630397e-38
-0.24990726 0.48610115 -0.90149212 0 0 0 1.3630397e-38
-0.2549516 0.45484161 -1.1138258 0 0 0 1.3630397e-38
-0.19603944 0.57678604 -0.47487029 0 0 0 1.3630397e-38
-0.20582294 0.51735401 -0.68874002 0 0 0 1.3630397e-38
-0.20863152 0.50160122 -0.90311825 0 0 0 1.3630397e-38
-0.21313226 0.47425842 -1.1162031 0 0 0 1.3630397e-38
-0.15204334 0.56743526 -0.4747929 0 0 0 1.3630397e-38
-0.16204429 0.50804043 -0.6886273 0 0 0 1.3630397e-38
-0.1632545 0.50213528 -0.90370959 0 0 0 1.3630397e-38
-0.16653466 0.48265266 -1.117666 0 0 0 1.3630397e-38
-0.098256111 0.61503983 -0.47696018 0 0 0 1.3630397e-38
-0.11187053 0.53595734 -0.69065636 0 0 0 1.3630397e-38
-0.11547852 0.51625729 -0.90533578 0 0 0 1.3630397e-38
-0.11951113 0.49282932 -1.1193117 0 0 0 1.3630397e-38
-0.053234339 0.64778614 -0.47850826 0 0 0 1.3630397e-38
-0.052614689 0.65131855 -0.69764519 0 0 0 1.3630397e-38
-0.059067488 0.61577415 -0.91331881 0 0 0 1.3630397e-38
-0.07076931 0.54904747 -1.1251634 0 0 0 1.3630397e-38
-0.0051226616 0.65955257 -0.47928229 0 0 0 1.3630397e-38
-0.0013234615 0.68075657 -0.69978696 0 0 0 1.3630397e-38
0.071169138 0.36685848 -0.68310386 0 0 0 1.3630397e-38
0.073953152 0.38264465 -0.89809191 0 0 0 1.3630397e-38
-0.45368934 0.43716049 -1.0390999 0 0 0 1.3630397e-38
0.12498355 0.41142941 -0.68614739 0 0 0 1.3630397e-38
-0.41016459 0.42875385 -1.0389285 0 0 0 1.3630397e-38
-0.40814352 0.44234276 -1.2541794 0 0 0 1.3630397e-38
-0.34891307 0.57920551 -0.25723156 0 0 0 1.3630397e-38
-0.36125636 0.49797249 -1.0454401 0 0 0 1.3630397e-38
-0.3705678 0.43669415 -1.2541794 0 0 0 1.3630397e-38
-0.30980492 0.53879738 -0.25651714 0 0 0 1.3630397e-38
-0.31660306 0.49513626 -1.0457828 0 0 0 1.3630397e-38
0.12323546 -0.016329765 -1.0774359 0 0 0 1.3630397e-38
-0.32613993 0.43388462 -1.2545919 0 0 0 1.3630397e-38
-0.26718974 0.52196026 -0.25630704 0 0 0 1.3630397e-38
-0.27257347 0.48819733 -1.0457828 0 0 0 1.3630397e-38
0.15700126 -0.065851212 -1.0735956 0 0 0 1.3630397e-38
-0.27513003 0.47216511 -1.2593364 0 0 0 1.3630397e-38
-0.22775924 0.52573586 -0.25651714 0 0 0 1.3630397e-38
-0.23325467 0.49195576 -1.0466396 0 0 0 1.3630397e-38
0.19176102 -0.079123497 -1.0730472 0 0 0 1.3630397e-38
-0.21062934 0.6310339 -1.2766638 0 0 0 1.3630397e-38
-0.17770886 0.55397606 -0.25727358 0 0 0 1.3630397e-38
0.11181068 -0.66434002 -0.42982146 0 0 0 1.3630397e-38
-0.18923736 0.4847126 -1.0466396 0 0 0 1.3630397e-38
0.23492026 -0.082076073 -1.0735956 0 0 0 1.3630397e-38
-0.17786074 0.55306244 -1.2692378 0 0 0 1.3630397e-38
0.14484787 -0.7040987 -0.42858303 0 0 0 1.3630397e-38
0.19425058 -0.47404671 -0.83762777 0 0 0 1.3630397e-38
-0.1415689 0.49891567 -1.0485245 0 0 0 1.3630397e-38
0.19329858 -0.47846127 -1.0372057 0 0 0 1.3630397e-38
-0.13061571 0.5632658 -1.2710942 0 0 0 1.3630397e-38
0.18565726 -0.68024349 -0.42982146 0 0 0 1.3630397e-38
0.24472475 -0.41042042 -0.64207256 0 0 0 1.3630397e-38
0.21828198 -0.53029346 -0.83393192 0 0 0 1.3630397e-38
-0.098027468 0.52580547 -1.0514375 0 0 0 1.3630397e-38
0.2211647 -0.51712513 -1.0342799 0 0 0 1.3630397e-38
-0.091641426 0.56262398 -1.2717131 0 0 0 1.3630397e-38
0.22407174 -0.69486618 -0.42958927 0 0 0 1.3630397e-38
0.25851321 -0.54025173 -0.63508368 0 0 0 1.3630397e-38
0.25638151 -0.54891968 -0.83319277 0 0 0 1.3630397e-38
-0.048671246 0.5474968 -1.0540079 0 0 0 1.3630397e-38
0.25065541 -0.57462692 -1.0297083 0 0 0 1.3630397e-38
-0.04632473 0.56073761 -1.272332 0 0 0 1.3630397e-38
0.26247835 -0.68300247 -0.4303633 0 0 0 1.3630397e-38
0.28551412 -0.58110046 -0.63316739 0 0 0 1.3630397e-38
0.28688192 -0.57416058 -0.83186227 0 0 0 1.3630397e-38
0.2775681 -0.61536503 -1.0265996 0 0 0 1.3630397e-38
0.31158948 -0.65115452 -0.43198878 0 0 0 1.3630397e-38
-0.50700247 0.55283928 -0.61626083 0 0 0 1.3630397e-38
0.3255949 -0.59023857 -0.63316739 0 0 0 1.3630397e-38
0.32654142 -0.58524704 -0.83171445 0 0 0 1.3630397e-38
0.3179698 -0.62253284 -1.0267825 0 0 0 1.3630397e-38
0.35869241 -0.62925053 -0.43322721 0 0 0 1.3630397e-38
-0.46276009 0.54659843 -0.61626083 0 0 0 1.3630397e-38
0.36382365 -0.60730076 -0.63271648 0 0 0 1.3630397e-38
-0.46739244 0.51418877 -0.83010751 0 0 0 1.3630397e-38
0.36524487 -0.60036278 -0.83127093 0 0 0 1.3630397e-38
0.35880518 -0.62791061 -1.0271482 0 0 0 1.3630397e-38
0.40275478 -0.62115669 -0.43392384 0 0 0 1.3630397e-38
-0.41883087 0.53821945 -0.61615986 0 0 0 1.3630397e-38
0.40703964 -0.60312653 -0.63350558 0 0 0 1.3630397e-38
-0.41489482 0.56505585 -0.83405846 0 0 0 1.3630397e-38
0.41171002 -0.58262444 -0.83334059 0 0 0 1.3630397e-38
0.090565443 0.3536272 -1.0397854 0 0 0 1.3630397e-38
0.40285802 -0.61987686 -1.0287939 0 0 0 1.3630397e-38
-0.36166108 0.66132545 -0.18598919 0 0 0 1.3630397e-38
-0.3710283 0.59882736 -0.40227088 0 0 0 1.3630397e-38
0.45945764 -0.5360899 -0.43763921 0 0 0 1.3630397e-38
-0.37976968 0.54050446 -0.6165638 0 0 0 1.3630397e-38
0.44226265 -0.60744858 -0.63373101 0 0 0 1.3630397e-38
-0.38136995 0.52982712 -0.83201486 0 0 0 1.3630397e-38
0.44512725 -0.59472275 -0.83304495 0 0 0 1.3630397e-38
0.12633371 0.33858776 -1.0390999 0 0 0 1.3630397e-38
0.44082475 -0.61257935 -1.0302569 0 0 0 1.3630397e-38
-0.33493817 0.53793335 -0.1842078 0 0 0 1.3630397e-38
-0.32267249 0.61777306 -0.40312386 0 0 0 1.3630397e-38
-0.33921313 0.51010609 -0.61535203 0 0 0 1.3630397e-38
0.49316812 -0.57255173 -0.63632363 0 0 0 1.3630397e-38
-0.33903086 0.51129341 -0.83119738 0 0 0 1.3630397e-38
0.49357677 -0.57005501 -1.0351942 0 0 0 1.3630397e-38
-0.30047095 0.51032162 -0.18387567 0 0 0 1.3630397e-38
-0.28640449 0.60000515 -0.40273017 0 0 0 1.3630397e-38
-0.30266285 0.49634647 -0.61494815 0 0 0 1.3630397e-38
-0.3027848 0.49557114 -0.83051622 0 0 0 1.3630397e-38
-0.25226355 0.52899265 -0.18426818 0 0 0 1.3630397e-38
-0.24262476 0.58900833 -0.40259895 0 0 0 1.3630397e-38
-0.25609517 0.50513554 -0.61575598 0 0 0 1.3630397e-38
-0.25717175 0.49843121 -0.83119738 0 0 0 1.3630397e-38
-0.2084347 0.51984501 -0.18423799 0 0 0 1.3630397e-38
-0.19468546 0.6034956 -0.40332067 0 0 0 1.3630397e-38
-0.2074939 0.52556896 -0.61716962 0 0 0 1.3630397e-38
-0.21377778 0.48733807 -0.83092493 0 0 0 1.3630397e-38
0.21519613 -0.069742203 -1.0061996 0 0 0 1.3630397e-38
-0.14827108 0.60793781 -0.40371436 0 0 0 1.3630397e-38
-0.16169763 0.52807999 -0.61767453 0 0 0 1.3630397e-38
-0.16547656 0.50560379 -0.83269602 0 0 0 1.3630397e-38
0.24799252 -0.1214962 -1.0024298 0 0 0 1.3630397e-38
0.21648502 -0.43946934 -0.23832057 0 0 0 1.3630397e-38
-0.10004759 0.66057777 -0.40568274 0 0 0 1.3630397e-38
-0.11845589 0.5531559 -0.61929017 0 0 0 1.3630397e-38
-0.11759281 0.55819225 -0.83678323 0 0 0 1.3630397e-38
0.21451092 -0.4485693 -0.9743275 0 0 0 1.3630397e-38
0.24932599 -0.48350048 -0.23756413 0 0 0 1.3630397e-38
-0.048516273 0.69222355 -0.406995 0 0 0 1.3630397e-38
-0.054573536 0.65763855 -0.62504584 0 0 0 1.3630397e-38
0.2340281 -0.5527916 -0.96593112 0 0 0 1.3630397e-38
0.26559973 -0.40979099 -1.1799188 0 0 0 1.3630397e-38
0.28398991 -0.49121094 -0.23756413 0 0 0 1.3630397e-38
-0.011763096 0.67644215 -0.62635851 0 0 0 1.3630397e-38
0.26019597 -0.59739685 -0.96267533 0 0 0 1.3630397e-38
0.26656699 -0.56896591 -1.1638288 0 0 0 1.3630397e-38
0.3261776 -0.49254513 -0.23773223 0 0 0 1.3630397e-38
0.29534626 -0.62781334 -0.96079046 0 0 0 1.3630397e-38
0.29608226 -0.6245842 -1.1588782 0 0 0 1.3630397e-38
0.33345604 -0.64475155 -0.960105 0 0 0 1.3630397e-38
0.32971501 -0.66089153 -1.1559902 0 0 0 1.3630397e-38
-0.44687295 0.55988789 -0.54487175 0 0 0 1.3630397e-38
-0.45314622 0.51486111 -0.75824815 0 0 0 1.3630397e-38
0.058902979 0.3520155 -0.82506663 0 0 0 1.3630397e-38
-0.45902574 0.4740591 -0.97103971 0 0 0 1.3630397e-38
0.36989307 -0.64302635 -0.96096176 0 0 0 1.3630397e-38
-0.45242882 0.5183506 -1.1898984 0 0 0 1.3630397e-38
0.36928439 -0.64561558 -1.1584656 0 0 0 1.3630397e-38
-0.40465057 0.53959084 -0.54424739 0 0 0 1.3630397e-38
-0.40408039 0.54199314 -0.76036412 0 0 0 1.3630397e-38
-0.40165997 0.55836296 -0.97838759 0 0 0 1.3630397e-38
0.41437793 -0.63309288 -0.96267533 0 0 0 1.3630397e-38
-0.41704798 0.45283794 -1.1840569 0 0 0 1.3630397e-38
0.41328979 -0.63764572 -1.1603222 0 0 0 1.3630397e-38
-0.35686433 0.55668068 -0.54531771 0 0 0 1.3630397e-38
-0.35718596 0.55313683 -0.76148427 0 0 0 1.3630397e-38
-0.36068499 0.53005505 -0.97663051 0 0 0 1.3630397e-38
0.45849943 -0.62527466 -0.96421754 0 0 0 1.3630397e-38
-0.37257612 0.4502039 -1.1844463 0 0 0 1.3630397e-38
0.46865463 -0.58345795 -1.1671294 0 0 0 1.3630397e-38
-0.32381988 0.51927757 -0.54389066 0 0 0 1.3630397e-38
-0.32659149 0.49998379 -0.75849712 0 0 0 1.3630397e-38
-0.32374895 0.51834583 -0.97615129 0 0 0 1.3630397e-38
0.50986457 -0.56398678 -0.97038633 0 0 0 1.3630397e-38
-0.33406222 0.45034409 -1.1850305 0 0 0 1.3630397e-38
-0.27626026 0.53407288 -0.54487175 0 0 0 1.3630397e-38
-0.27879298 0.51673985 -0.75999069 0 0 0 1.3630397e-38
-0.27994657 0.50946426 -0.97599155 0 0 0 1.3630397e-38
-0.28240275 0.49261856 -1.1898984 0 0 0 1.3630397e-38
-0.23048782 0.53684807 -0.54531771 0 0 0 1.3630397e-38
-0.23980176 0.47813797 -0.75799924 0 0 0 1.3630397e-38
-0.23458707 0.51026344 -0.97663051 0 0 0 1.3630397e-38
-0.22339141 0.57789993 -1.1990498 0 0 0 1.3630397e-38
0.10313082 -0.66419697 -0.36421558 0 0 0 1.3630397e-38
-0.19065833 0.54246712 -0.54585284 0 0 0 1.3630397e-38
-0.19722414 0.50149822 -0.75986624 0 0 0 1.3630397e-38
-0.1967988 0.50406837 -0.97663051 0 0 0 1.3630397e-38
-0.19156826 0.53435802 -1.1953503 0 0 0 1.3630397e-38
0.14038944 -0.68439198 -0.36382189 0 0 0 1.3630397e-38
-0.1421206 0.56067657 -0.54701233 0 0 0 1.3630397e-38
-0.15083957 0.50790024 -0.76073748 0 0 0 1.3630397e-38
0.18861771 -0.4598856 -0.77247816 0 0 0 1.3630397e-38
-0.14907646 0.51831341 -0.97838759 0 0 0 1.3630397e-38
-0.14374018 0.5485487 -1.1974921 0 0 0 1.3630397e-38
0.20357704 -0.58559418 -0.3674306 0 0 0 1.3630397e-38
-0.095466852 0.56687927 -0.54763669 0 0 0 1.3630397e-38
0.22357416 -0.49414062 -0.5706194 0 0 0 1.3630397e-38
-0.10029578 0.53772545 -0.76310235 0 0 0 1.3630397e-38
0.21294689 -0.54274273 -0.76730108 0 0 0 1.3630397e-38
-0.099862814 0.54022694 -0.98078364 0 0 0 1.3630397e-38
-0.10325098 0.5194025 -1.1953503 0 0 0 1.3630397e-38
0.25178051 -0.53071404 -0.3695302 0 0 0 1.3630397e-38
-0.047787666 0.61534214 -0.55013406 0 0 0 1.3630397e-38
0.24478769 -0.56221962 -0.56748909 0 0 0 1.3630397e-38
-0.031919241 0.7040987 -0.77405536 0 0 0 1.3630397e-38
0.24828959 -0.54644203 -0.76757354 0 0 0 1.3630397e-38
-0.049518347 0.6042881 -0.98653418 0 0 0 1.3630397e-38
-0.052990198 0.58336353 -1.20236 0 0 0 1.3630397e-38
0.29776978 -0.51438046 -0.37038314 0 0 0 1.3630397e-38
0.011908054 0.69197178 -0.55396926 0 0 0 1.3630397e-38
0.28845763 -0.55562115 -0.56829691 0 0 0 1.3630397e-38
0.002613306 0.6391449 -0.77044588 0 0 0 1.3630397e-38
0.28190541 -0.58463955 -0.76552993 0 0 0 1.3630397e-38
0.33854246 -0.52161598 -0.37044877 0 0 0 1.3630397e-38
0.31790185 -0.61149216 -0.56587344 0 0 0 1.3630397e-38
0.035615683 0.56821346 -0.76646292 0 0 0 1.3630397e-38
0.32197332 -0.59376335 -0.76552993 0 0 0 1.3630397e-38
0.38623857 -0.4731493 -0.37235153 0 0 0 1.3630397e-38
0.35986757 -0.58634567 -0.56759006 0 0 0 1.3630397e-38
0.070280075 0.54351044 -0.76534277 0 0 0 1.3630397e-38
0.3594594 -0.58809853 -0.7664836 0 0 0 1.3630397e-38
0.42901778 -0.47293091 -0.37267959 0 0 0 1.3630397e-38
0.3921032 -0.62879848 -0.56587344 0 0 0 1.3630397e-38
0.083036423 0.37045479 -0.75488758 0 0 0 1.3630397e-38
0.39813471 -0.60333157 -0.7660749 0 0 0 1.3630397e-38
0.083543777 0.37311172 -0.97024101 0 0 0 1.3630397e-38
0.44369483 -0.58977699 -0.56839788 0 0 0 1.3630397e-38
0.44840622 -0.57020378 -0.76907218 0 0 0 1.3630397e-38
0.12750435 0.36666489 -0.97040075 0 0 0 1.3630397e-38
0.057887316 0.0081090927 -1.1490084 0 0 0 1.3630397e-38
-0.33300734 0.60124588 -0.11258724 0 0 0 1.3630397e-38
-0.33269286 0.60330105 -0.3299683 0 0 0 1.3630397e-38
0.49080944 -0.54570389 -0.57112426 0 0 0 1.3630397e-38
0.10221624 0.042002678 -1.1530974 0 0 0 1.3630397e-38
-0.29725993 0.53904438 -0.11207314 0 0 0 1.3630397e-38
-0.29260099 0.5687685 -0.32921532 0 0 0 1.3630397e-38
-0.25592196 0.51426315 -0.11190789 0 0 0 1.3630397e-38
-0.25051951 0.54792404 -0.32883883 0 0 0 1.3630397e-38
-0.21487403 0.52796841 -0.32846233 0 0 0 1.3630397e-38
0.1761632 -0.41024971 -0.91018003 0 0 0 1.3630397e-38
0.20775795 -0.43300343 -0.70734149 0 0 0 1.3630397e-38
0.19716573 -0.48203564 -0.90490872 0 0 0 1.3630397e-38
0.20288324 -0.45650578 -1.1073395 0 0 0 1.3630397e-38
0.20759034 -0.62648296 -0.49795693 0 0 0 1.3630397e-38
0.22780752 -0.53543663 -0.70136714 0 0 0 1.3630397e-38
0.22519541 -0.54731655 -0.9002763 0 0 0 1.3630397e-38
0.23102474 -0.52171803 -1.1016928 0 0 0 1.3630397e-38
0.24532461 -0.64508343 -0.49751097 0 0 0 1.3630397e-38
0.26805615 -0.54436302 -0.70136714 0 0 0 1.3630397e-38
0.26540065 -0.55623341 -0.9002763 0 0 0 1.3630397e-38
0.25741696 -0.59281635 -1.095462 0 0 0 1.3630397e-38
0.28783107 -0.64238453 -0.49804613 0 0 0 1.3630397e-38
0.30251384 -0.57874012 -0.69974905 0 0 0 1.3630397e-38
0.30026436 -0.58862495 -0.89835948 0 0 0 1.3630397e-38
0.29082942 -0.63096428 -1.0925412 0 0 0 1.3630397e-38
0.32289433 -0.6463213 -0.4982245 0 0 0 1.3630397e-38
0.33732724 -0.58467197 -0.69987351 0 0 0 1.3630397e-38
0.3310101 -0.61203384 -0.89708161 0 0 0 1.3630397e-38
0.32323861 -0.64656162 -1.0917624 0 0 0 1.3630397e-38
0.37232351 -0.61474705 -0.50009751 0 0 0 1.3630397e-38
0.37557006 -0.60177231 -0.69937563 0 0 0 1.3630397e-38
0.37234378 -0.61551666 -0.89756078 0 0 0 1.3630397e-38
0.36853814 -0.63258362 -1.0940989 0 0 0 1.3630397e-38
0.40287328 -0.6383934 -0.49938399 0 0 0 1.3630397e-38
0.41124845 -0.6040535 -0.69974905 0 0 0 1.3630397e-38
0.41167092 -0.60227871 -0.89931792 0 0 0 1.3630397e-38
0.40411615 -0.63485813 -1.0946831 0 0 0 1.3630397e-38
0.45589709 -0.59358501 -0.50188136 0 0 0 1.3630397e-38
0.4587543 -0.58260918 -0.7017405 0 0 0 1.3630397e-38
0.46058011 -0.57506275 -0.90235293 0 0 0 1.3630397e-38
0.45850968 -0.58445549 -1.1007192 0 0 0 1.3630397e-38
0.49783874 -0.59558678 -0.50223815 0 0 0 1.3630397e-38
0.50645208 -0.56136703 -0.70373195 0 0 0 1.3630397e-38
0.51115131 -0.54225063 -0.9058671 0 0 0 1.3630397e-38
0.10919857 -0.42857742 -0.30474332 0 0 0 1.3630397e-38
0.13086319 -0.52705765 -0.30226925 0 0 0 1.3630397e-38
0.1817193 -0.45815277 -0.30436683 0 0 0 1.3630397e-38
0.21799302 -0.48644447 -0.30382898 0 0 0 1.3630397e-38
0.25235939 -0.52266121 -0.303076 0 0 0 1.3630397e-38
0.28821754 -0.52452946 -0.30323738 0 0 0 1.3630397e-38
0.33519983 -0.50444508 -0.30404413 0 0 0 1.3630397e-38
