# .PCD v0.7 - Point Cloud Data file format
VERSION 0.7
FIELDS x y z
SIZE 4 4 4
TYPE F F F
COUNT 1 1 1
WIDTH 1038
HEIGHT 1
VIEWPOINT 0 0 0 1 0 0 0
POINTS 1038
DATA ascii
1.8801157 4.3599238 -0.43594825
1.8826823 4.3284273 -0.43338814
1.885717 4.2923231 -0.43046233
1.9350905 4.3673978 -0.35406259
1.8951584 4.2772732 -0.429548
1.92746 4.3074794 -0.34977537
1.9100093 4.2684803 -0.42936513
1.9498053 4.3149266 -0.35095805
1.9281015 4.2668962 -0.42991373
1.9608703 4.3033347 -0.35051456
1.9414968 4.2608175 -0.42991373
1.983299 4.3106146 -0.35169724
1.9587654 4.2572918 -0.43027946
2.0182981 4.3444772 -0.18553612
2.0041268 4.3141694 -0.35258424
1.9718387 4.2446651 -0.42973086
2.0299647 4.3280039 -0.1851491
2.0190785 4.3049893 -0.35243639
1.9856915 4.2338033 -0.42936513
2.0324452 4.2981181 -0.18414286
2.0921957 4.4244757 -0.27628508
2.0394139 4.3130498 -0.35361907
2.0032394 4.2365465 -0.43027946
2.0335488 4.2599797 -0.182827
2.0636668 4.3230724 -0.27042347
2.0552082 4.3055463 -0.35361907
2.0170379 4.2255812 -0.42991373
2.046922 4.2535701 -0.182827
2.0607862 4.2823806 -0.26828173
2.0669947 4.2954736 -0.3533234
2.0337572 4.2264023 -0.43064517
1.8505776 4.3198037 -0.57045031
2.0581324 4.237051 -0.18243998
2.0659986 4.2532449 -0.26692903
2.0844674 4.2914572 -0.35361907
2.0588059 4.238626 -0.43265668
1.8716512 4.3251314 -0.48867613
1.8443198 4.2619724 -0.56370223
1.8684717 4.3177843 -0.65425754
2.0727682 4.227685 -0.18236257
2.0771785 4.2366796 -0.26636541
2.1036944 4.2909517 -0.35421041
1.9081911 4.3656006 -0.40971106
2.0708206 4.2238984 -0.43192524
1.8803203 4.301837 -0.4868196
1.8726512 4.2842917 -0.56755829
1.8819046 4.3054614 -0.65343112
2.0873632 4.2182679 -0.18228517
2.0909214 4.2254586 -0.26613998
2.1202919 4.2850003 -0.35435826
1.900841 4.3057127 -0.40474176
2.1021869 4.2484112 -0.43521678
1.8920575 4.2858171 -0.4857882
1.8883414 4.2773991 -0.56755829
1.8856717 4.2713518 -0.64929897
2.1077409 4.225997 -0.18290439
2.1006207 4.2117214 -0.26568907
2.1435351 4.2979517 -0.35598442
1.9094955 4.2887979 -0.40371361
2.1137455 4.2382212 -0.43485105
1.9030851 4.2743998 -0.48516938
1.9058076 4.2805147 -0.56876326
1.9031099 4.2744551 -0.65067637
2.1232157 4.2182431 -0.18290439
2.1223278 4.2164793 -0.26647815
2.172724 4.3167901 -0.35820192
1.9276533 4.2872224 -0.40422767
2.1400099 4.2517934 -0.43704543
1.917923 4.2655816 -0.48496309
1.9198554 4.2698789 -0.56828129
1.930949 4.2945518 -0.65480852
2.1427863 4.2240281 -0.18344623
2.1799588 4.2974916 -0.35716709
1.9386439 4.275701 -0.40371361
2.1632676 4.2645874 -0.43905693
1.9313142 4.2595353 -0.48496309
1.9348998 4.2674432 -0.56876326
1.9542474 4.3101144 -0.65811419
2.1564324 4.2125883 -0.18329142
2.201148 4.3001256 -0.3580541
1.9592792 4.2794375 -0.40474176
2.1806986 4.2601757 -0.43942267
1.9527102 4.2650895 -0.48640704
1.9645782 4.2910113 -0.5728603
1.9708562 4.3047237 -0.65838969
2.0120075 4.3523884 -0.10077459
2.2416077 4.3398757 -0.36204562
1.9749509 4.2722273 -0.40474176
2.2036102 4.2663107 -0.44088557
1.975842 4.2741551 -0.48826358
1.9794592 4.28198 -0.57261932
1.9758147 4.274096 -0.65480852
2.0045526 4.3007369 -0.099723987
2.2672021 4.3558121 -0.36396745
1.9858373 4.2605839 -0.40422767
2.2206805 4.2664332 -0.44161704
1.9783345 4.2444863 -0.48558193
1.9836752 4.2559452 -0.56996828
1.9909061 4.2714586 -0.65535945
2.0151939 4.2825055 -0.099471837
2.2868612 4.3545361 -0.36455879
2.0048335 4.2604885 -0.4049131
2.2418587 4.2688451 -0.44271421
2.0006542 4.2516069 -0.48723218
2.0043328 4.2594247 -0.57141429
2.0006444 4.251586 -0.65343112
2.0343084 4.2823153 -0.099639937
2.3140118 4.3672743 -0.3663328
2.0204356 4.2531118 -0.4049131
2.2835987 4.309875 -0.4478344
2.0051267 4.2208862 -0.48455054
2.0139675 4.2394962 -0.5697273
2.0128138 4.2370677 -0.65232921
2.0408425 4.2614756 -0.099303737
2.3389928 4.3810968 -0.36810681
2.0372298 4.2539325 -0.40559852
2.3130732 4.3325472 -0.45094311
2.0261104 4.2307138 -0.48640704
2.0298491 4.2385201 -0.57045031
2.0278261 4.2342968 -0.65288013
2.0581884 4.2575674 -0.099387787
2.0519402 4.2446427 -0.40542719
2.3638806 4.3889184 -0.45770907
2.0338109 4.20714 -0.48455054
2.0419137 4.2239022 -0.56948626
2.0459185 4.2321863 -0.65370661
2.1014147 4.3066311 -0.015723573
2.0737793 4.2499952 -0.099387787
2.0736008 4.2496295 -0.40662667
2.0570683 4.2157483 -0.48640704
2.0573814 4.2163897 -0.56948626
2.0588105 4.2193184 -0.65288013
1.8567373 4.2710195 -0.72987372
1.8413284 4.2353725 -0.80527818
2.1105206 4.2910347 -0.015690761
2.0835907 4.2362823 -0.099219695
2.0957355 4.2609749 -0.40834022
2.0729363 4.2146201 -0.48702589
2.0749989 4.2188134 -0.57069129
2.0790498 4.2270498 -0.65508395
1.8637984 4.2506886 -0.72739643
1.8569988 4.2349801 -0.80630881
1.8480527 4.2145782 -0.88353115
1.8269253 4.1661983 -0.95343554
2.1262338 4.2832704 -0.015690761
2.1026599 4.2357812 -0.099387787
2.1095667 4.2496953 -0.40799752
2.0954461 4.2212491 -0.48867613
2.0975099 4.2254066 -0.57261932
2.0883632 4.2069812 -0.65315562
1.8729649 4.2293758 -0.72491914
1.8589451 4.1975198 -0.8004685
1.848376 4.1736546 -0.87636638
1.8350488 4.1433663 -0.94974327
2.119962 4.2316217 -0.099471837
2.1322689 4.2561874 -0.40936834
2.118032 4.2277694 -0.49032634
2.1103148 4.2123652 -0.57189631
2.1117542 4.2152386 -0.65563494
1.8836136 4.2116604 -0.7230612
1.8727086 4.1870809 -0.79978138
1.861255 4.1614728 -0.87523508
1.8502227 4.1366124 -0.94974327
2.1359491 4.2302957 -0.099597909
1.9662387 4.3600106 -0.32656616
2.1510181 4.2601399 -0.41039649
2.1420631 4.2424045 -0.49280173
2.1360662 4.2305274 -0.5752703
2.1249864 4.2085834 -0.65563494
1.9065838 4.2273359 -0.72677714
1.9052951 4.2242818 -0.80802655
1.900161 4.2128992 -0.8873021
1.868843 4.14327 -0.95261508
2.1605175 4.2402549 -0.10001816
1.978898 4.3455114 -0.32602119
2.1756644 4.2699823 -0.41211003
2.1548886 4.2292075 -0.49218288
2.1479521 4.2155938 -0.57430631
2.1493907 4.2184172 -0.65838969
1.9474522 4.276063 -0.73637664
1.9354649 4.2495456 -0.81421047
1.9375702 4.254168 -0.89748365
1.8937528 4.1577692 -0.95753813
1.9931446 4.3346033 -0.32574874
2.2022338 4.2832451 -0.4141663
2.1912963 4.261972 -0.49692729
2.1851766 4.2500696 -0.58009034
2.1757069 4.2316513 -0.66169542
1.9614606 4.265306 -0.73575735
1.9469111 4.2334728 -0.81249273
1.9531494 4.2470379 -0.89748365
1.9286087 4.1934819 -0.96738428
2.0339065 4.3868885 -0.073006794
2.0078194 4.3306222 -0.15668289
2.0101094 4.3355613 -0.32629368
2.2230127 4.2904596 -0.41553715
2.2037597 4.2533007 -0.49672103
2.1948643 4.2361326 -0.57912636
2.1962807 4.2388663 -0.66389924
1.9715261 4.2519526 -0.73451871
1.9643456 4.2362728 -0.81421047
1.9606985 4.2284074 -0.894844
1.9376559 4.1785231 -0.96533298
2.0118206 4.2979016 -0.071648106
2.010967 4.2960777 -0.15569872
2.0285244 4.3335862 -0.32670242
2.2433391 4.2911124 -0.41639394
2.2313154 4.2681131 -0.49940264
2.2287726 4.2632494 -0.58394635
2.2365818 4.2781868 -0.67133713
1.981233 4.2321715 -0.73235106
1.9723406 4.212985 -0.81111854
1.9720193 4.2122989 -0.89295852
1.949638 4.1643023 -0.96369195
2.024142 4.283267 -0.071527332
2.022429 4.2796421 -0.15537065
2.0375738 4.3116899 -0.32561249
2.2683482 4.3004861 -0.41810748
2.2497282 4.2651854 -0.50002152
2.2527199 4.2708569 -0.58611536
2.2679584 4.299747 -0.67602021
2.0026412 4.2373867 -0.73451871
1.9928203 4.2164159 -0.81317979
1.9899628 4.2103701 -0.89408982
1.979108 4.1872139 -0.97066635
2.0203862 4.2407799 -0.07092347
2.0186691 4.2371755 -0.1540584
2.0386581 4.2791324 -0.23961774
2.0579748 4.3196783 -0.32670242
2.285588 4.3003769 -0.4187929
2.2771211 4.2844458 -0.50311571
2.3276243 4.3794689 -0.60202146
2.3297989 4.3835607 -0.69034499
2.0091443 4.216804 -0.73204136
1.9984291 4.1941261 -0.81008786
2.0023353 4.2023244 -0.8937127
1.9939368 4.1845102 -0.97148687
2.0402493 4.2423573 -0.071074441
2.0411162 4.2441597 -0.15458329
2.0525968 4.2680311 -0.23941578
2.0703342 4.3049135 -0.32615745
2.3258166 4.3376303 -0.42324814
2.3492126 4.3812637 -0.51549244
2.3605483 4.4024043 -0.60635948
2.3411694 4.3662629 -0.68896765
2.0254426 4.2111926 -0.73235106
2.0197661 4.1992021 -0.81249273
2.0202782 4.2002673 -0.894844
2.018594 4.196578 -0.97599965
2.047925 4.2186599 -0.070802703
2.0514207 4.2258606 -0.15418962
2.0560138 4.2353225 -0.23800211
2.0852273 4.2955012 -0.32602119
1.8626232 4.308188 -0.45913601
2.3662014 4.3743734 -0.51569873
2.3515019 4.3471985 -0.68731475
2.0400009 4.2019629 -0.73204136
2.0317011 4.1846814 -0.81111854
2.0408065 4.2034359 -0.89710653
2.0228469 4.1662598 -0.97066635
2.0594101 4.2086124 -0.070742317
2.076108 4.2427363 -0.15504259
2.075455 4.2414017 -0.23870894
2.1048508 4.301475 -0.3269749
1.9092873 4.3785162 -0.38272926
1.8833095 4.3187361 -0.46088845
2.3604076 4.3310928 -0.6859374
2.0549288 4.1990833 -0.73266071
2.0413733 4.1711993 -0.8097443
2.0522752 4.1934752 -0.89635235
2.0462515 4.1809826 -0.97558939
2.0730505 4.1974502 -0.07068193
2.0792522 4.2100072 -0.15412401
2.0830259 4.217648 -0.23780015
2.1232531 4.299099 -0.32738361
1.9052336 4.3258762 -0.37873584
1.8959165 4.3045177 -0.46010959
2.3695858 4.3102608 -0.68400902
2.0703053 4.1915231 -0.73266071
2.0679913 4.1866541 -0.81421047
2.0780694 4.207057 -0.90087748
2.0641627 4.1787195 -0.97682017
1.8537613 4.2066188 -1.0438982
1.8647048 4.2300515 -1.2921062
2.0942476 4.2070289 -0.070953667
2.0969219 4.2124014 -0.15445207
2.1051672 4.2289643 -0.23880991
2.1545327 4.3281326 -0.3301084
1.9212422 4.3253355 -0.37921506
1.9102381 4.3003597 -0.46030432
2.4023106 4.3374534 -0.68951857
2.0861049 4.1903048 -0.73358971
2.0776215 4.1730814 -0.81283629
2.0860236 4.1899586 -0.89861494
2.0798976 4.1774712 -0.97805095
1.8535019 4.170476 -1.0363691
1.8898042 4.2517581 -1.1381094
1.8861089 4.2428455 -1.2169036
1.8732897 4.2136121 -1.2888758
2.1177325 4.2154074 -0.071225405
2.1060658 4.192184 -0.15399279
2.1170661 4.2140808 -0.238406
2.1739645 4.3273387 -0.33065334
1.9272909 4.2964368 -0.37729821
1.9243575 4.2896972 -0.45991489
2.3878448 4.2742972 -0.59430945
2.1032233 4.186162 -0.734209
2.1008637 4.1812835 -0.81592822
2.1101849 4.1998353 -0.90238589
2.1039834 4.1873107 -0.98215353
1.8631847 4.1511989 -1.0332688
1.9045795 4.2430305 -1.1376342
1.8842152 4.1970749 -1.2057487
1.8847761 4.1979318 -1.286184
2.1313601 4.2040501 -0.071165018
2.1313593 4.2040486 -0.15471452
2.1433358 4.2276721 -0.23961774
2.195224 4.33002 -0.33147079
1.9430252 4.2893443 -0.37729821
1.9392457 4.2808022 -0.45972016
2.3956976 4.2516789 -0.59238142
2.1310616 4.2030973 -0.73854429
2.1241939 4.1893711 -0.81902015
2.1291168 4.19908 -0.90389425
2.1184313 4.1778255 -0.98174328
1.8848282 4.1585536 -1.0368119
1.9000669 4.1917858 -1.1257541
1.8979881 4.1866164 -1.2047346
1.8937867 4.1769614 -1.2818769
2.1822755 4.2656422 -0.072342545
2.1813495 4.2638321 -0.1572078
2.2301643 4.3592491 -0.33433181
1.9653676 4.2966976 -0.3785761
1.9615467 4.2881465 -0.46127787
2.3975308 4.2187033 -0.58900738
2.1401525 4.1829453 -0.73637664
2.1413293 4.1850653 -0.81970721
2.1480715 4.1982422 -0.9054026
2.1408629 4.1839733 -0.98502529
1.8927526 4.1356564 -1.0328259
1.9138006 4.1812606 -1.1248038
1.9092937 4.1708364 -1.2021993
1.9106869 4.1734948 -1.2829537
2.245677 4.3557682 -0.33460429
1.9805262 4.2941227 -0.37889558
1.9691728 4.2693105 -0.45991489
2.4048541 4.2008123 -0.58756137
2.178637 4.2253742 -0.74504721
2.1634963 4.1958294 -0.82314271
2.167551 4.2036934 -0.90804225
2.1638651 4.1963649 -0.98953813
1.9416931 4.2076082 -1.0523132
1.9244847 4.1699357 -1.1233782
1.9150902 4.1490088 -1.197636
1.9173305 4.153481 -1.2786467
2.0350015 4.3700476 -0.3005859
2.277281 4.3776011 -0.33692038
1.9920437 4.2777987 -0.37809688
1.9856477 4.2638688 -0.46010959
2.4013731 4.1593008 -0.58298236
2.1877258 4.205091 -0.74287957
2.1843164 4.1983585 -0.82520401
2.1956353 4.2201142 -0.91332161
2.1837485 4.1970882 -0.99158943
1.9472173 4.1792488 -1.0469985
1.9331911 4.1487665 -1.1195765
1.9270153 4.1349473 -1.1956078
1.9309134 4.1429343 -1.2775699
2.0386932 4.342473 -0.21414913
2.0376921 4.3401432 -0.29896784
2.3039923 4.3951669 -0.33882773
2.018182 4.2985883 -0.38049296
1.9990332 4.2576098 -0.46010959
2.4274035 4.1740479 -0.58611536
2.2312009 4.2559466 -0.75309843
2.2066438 4.2089257 -0.82863951
2.2271225 4.2479868 -0.92086345
2.2105572 4.2162113 -0.99774325
1.9603372 4.173111 -1.0469985
1.9503456 4.1514645 -1.1219525
1.9474007 4.1446319 -1.2001712
1.9537495 4.1577673 -1.2840304
2.0443268 4.3133059 -0.21307883
2.0570054 4.3398609 -0.29946572
2.0279465 4.2785521 -0.37937477
2.0095093 4.2394624 -0.45894131
2.4336462 4.1497092 -0.58394635
2.2606425 4.2739391 -0.75774336
2.2414017 4.2373838 -0.83585405
2.2610447 4.2745194 -0.92840534
2.2470474 4.2478781 -1.0071791
1.9739479 4.1623735 -1.0461127
1.9630508 4.1390224 -1.1205269
1.9617492 4.1357188 -1.1996641
1.9664986 4.1453576 -1.2824153
2.0480494 4.2805514 -0.21183015
2.0703135 4.3268905 -0.29909232
2.0522192 4.2890739 -0.38097215
2.02933 4.2410464 -0.45991489
2.4549034 4.1510153 -0.58539236
1.9942434 4.1656656 -1.0487701
1.9832416 4.142313 -1.1233782
1.9919341 4.1599092 -1.2087909
1.9999816 4.1763415 -1.2942597
2.0554111 4.2614989 -0.21120581
2.0804276 4.3131733 -0.29859444
2.0648174 4.2808099 -0.38081241
2.045238 4.2400284 -0.46049902
2.4506595 4.1142845 -0.58129537
2.0124066 4.169919 -1.0514274
2.0224228 4.1903 -1.1381094
2.0445209 4.2355189 -1.2326219
2.1102297 4.3712544 -1.3567114
2.0727656 4.2575297 -0.21138419
2.0944748 4.30193 -0.29834551
2.0892203 4.2911377 -0.38240978
2.0677357 4.2468209 -0.46205673
2.4667449 4.106977 -0.58153635
2.0285306 4.1642685 -1.0518703
2.05053 4.2090564 -1.1452374
2.099859 4.3097396 -1.256453
2.1135807 4.3375173 -1.3486358
2.080426 4.2337651 -0.21058147
2.1093476 4.2924328 -0.29822105
2.1005378 4.2745056 -0.38161111
2.085043 4.2427869 -0.46244615
2.4457836 4.0384688 -0.57310128
2.0549669 4.1795588 -1.0576279
2.1208065 4.3130879 -1.1756504
2.119056 4.3089585 -1.2584811
2.1201134 4.3107285 -1.3427136
2.0892825 4.218256 -0.2101355
2.1121905 4.2643204 -0.29672745
2.1183805 4.2768178 -0.38240978
2.0983617 4.2362156 -0.46244615
2.5742481 4.2206082 -0.60009348
2.068953 4.1748295 -1.0580708
2.1188171 4.2750721 -1.1670967
2.1248493 4.2866793 -1.2539178
2.1319344 4.3005953 -1.3416369
2.1109824 4.2230806 -0.21075985
2.1474416 4.2958302 -0.29946572
2.1376073 4.2761574 -0.38304874
2.1254447 4.2516413 -0.46497744
2.611541 4.2466602 -0.60515451
2.1016893 4.202105 -1.0669286
2.1344717 4.2672777 -1.1670967
2.1388154 4.2754021 -1.2529037
2.1485443 4.2944751 -1.3421752
2.1336458 4.2295861 -0.21147338
2.1667683 4.2950592 -0.29996356
2.1649392 4.2914333 -0.38512531
2.1437032 4.2491541 -0.4655616
2.6657989 4.2994938 -0.61407155
2.1390474 4.2379022 -1.078001
2.152724 4.2646284 -1.1685224
2.156215 4.2709885 -1.2539178
2.1625338 4.2831326 -1.3410984
2.1509466 4.2252984 -0.21165176
2.2123809 4.3457918 -0.30407095
2.1878891 4.2976828 -0.3864032
2.1691966 4.2607808 -0.46770346
2.1572211 4.2352471 -1.0793296
2.165695 4.2515168 -1.1670967
2.1657069 4.2509899 -1.2503685
2.1790922 4.2768941 -1.3416369
2.2086601 4.3049784 -0.3876811
2.1952927 4.2787395 -0.47042945
2.1776412 4.2423301 -1.0828727
2.1888003 4.2637033 -1.1723239
2.1896548 4.2648182 -1.256453
2.2021956 4.2888756 -1.347559
1.9993131 4.3134584 -0.12789969
2.2271736 4.3021655 -0.38816032
2.202724 4.2547555 -0.46867701
2.1886904 4.2256608 -1.0806583
2.1972644 4.2418518 -1.1685224
2.2097211 4.2653532 -1.2589883
2.2099254 4.2653832 -1.3427136
2.0465198 4.3791943 -0.044377584
2.0035434 4.2872324 -0.12730806
2.2563536 4.3251958 -0.39087582
2.241859 4.2972279 -0.47412902
2.2064672 4.2274094 -1.0828727
2.2132766 4.2400947 -1.169948
2.2284822 4.2686801 -1.2620305
2.0284224 4.2993155 -0.043643162
2.0107126 4.2617788 -0.12677021
2.2777624 4.3274817 -0.39183426
2.2566669 4.287221 -0.47393429
2.2328517 4.2400017 -1.0881875
2.2460027 4.2646136 -1.1789768
2.2522273 4.2758889 -1.2665938
2.0243871 4.2503238 -0.043220866
2.0349164 4.2724304 -0.12730806
2.3123088 4.3543191 -0.39502898
2.3013065 4.3334184 -0.47997046
2.2438016 4.2231779 -1.085973
2.2570605 4.2477751 -1.1766008
2.0334017 4.2349286 -0.043129064
2.0310211 4.2299709 -0.12623237
2.3344417 4.3628535 -0.39646661
2.3440216 4.3805733 -0.48600659
2.2883551 4.2745695 -1.1010314
2.039315 4.2076511 -0.042927098
2.0561028 4.2422886 -0.12682399
2.0723 4.2360778 -0.043294307
2.0602164 4.2113776 -0.1261248
2.0723305 4.202641 -0.0430189
2.0787418 4.2156429 -0.12644751
2.0993037 4.2182932 -0.043257587
2.0977421 4.2151551 -0.12666264
2.1210337 4.2230806 -0.043386113
2.1059988 4.1931458 -0.12623237
2.166806 4.2806325 -0.044047095
2.1408317 4.2293191 -0.1275232
2.470993 3.2926097 -0.37798029
2.1854212 4.2784185 -0.1292443
2.4794407 3.2787654 -0.37743169
2.4745419 3.2474778 -0.37487161
2.48593 3.2412498 -0.30276415
2.4956405 3.2539108 -0.37651739
2.4794986 3.2084439 -0.30054665
2.5014608 3.2368627 -0.37560305
2.48634 3.1930399 -0.29995531
2.4914377 3.1789336 -0.29936397
2.4973414 3.1624098 -0.22747584
2.5191414 3.19013 -0.3012858
2.5138884 3.1594856 -0.22792673
2.535784 3.1871185 -0.30187714
2.5113201 3.1359861 -0.2267995
2.5420439 3.1744657 -0.30143365
2.473896 3.0661523 -0.22240329
2.4985559 3.0968263 -0.29492894
2.6424844 3.275218 -0.38639206
2.4901028 3.3787282 -0.50947696
2.4725218 3.0415699 -0.22127606
2.4645984 3.0319309 -0.28960693
2.6042206 3.2036932 -0.37907746
2.4694397 3.3251038 -0.42947391
2.496551 3.361609 -0.50827193
2.4993401 3.0549023 -0.15287185
2.4706852 3.0198779 -0.22026154
2.4753742 3.025717 -0.28975475
2.4932063 3.0475135 -0.36152253
2.4739182 3.3093626 -0.42844251
2.4940231 3.336257 -0.5056209
2.5156047 3.0518899 -0.15318146
2.483007 3.0123429 -0.22037427
2.4965961 3.0289366 -0.29093742
2.5106928 3.0460393 -0.36243683
2.4776523 3.2891502 -0.42699856
2.5122073 3.3350229 -0.50682592
2.5050681 3.0165122 -0.1518656
2.4902041 2.9986136 -0.2200361
2.4872932 2.9952149 -0.28857207
2.4854028 3.2743976 -0.35350645
2.5142062 3.0276234 -0.36133966
2.4884884 3.2784626 -0.42679226
2.516011 3.3147225 -0.50513893
2.5173898 3.0088432 -0.15194301
2.5050218 2.9940608 -0.22037427
2.5072136 2.9967868 -0.28960693
2.4889135 3.2541869 -0.35230696
2.5355098 3.0306084 -0.36280257
2.5113647 3.2835412 -0.4286488
2.5377927 3.318095 -0.50706691
2.5113831 2.9825749 -0.15101416
2.5118432 2.9831214 -0.22014882
2.5140467 2.9858439 -0.28931126
2.4906158 3.2352989 -0.35110748
2.5386045 3.0150104 -0.36188823
2.521668 3.2756352 -0.4286488
2.5324597 3.2896538 -0.50393391
2.5313478 2.9840183 -0.151556
2.5201766 2.9708495 -0.21992338
2.522393 2.9735672 -0.28901559
2.513449 3.240319 -0.35264966
2.5483496 3.0041668 -0.36170539
2.5653579 3.3072398 -0.43401206
2.5639699 3.3054504 -0.50778991
2.5420072 2.977571 -0.1516334
2.5307939 2.9644361 -0.2200361
2.5407872 2.9762471 -0.29005042
2.5211637 3.2292655 -0.35230696
2.5551887 2.9931166 -0.36133966
2.5683899 3.2897558 -0.43277436
2.5462401 3.261385 -0.50224692
2.5581162 2.9742947 -0.15194301
2.5364337 2.9490848 -0.21958521
2.5425746 2.9563291 -0.28901559
2.5479605 2.9625916 -0.35877955
2.5804303 3.2803202 -0.43277436
2.5741346 3.2723169 -0.50537992
2.5523922 3.2446775 -0.57409376
2.5585308 2.9528158 -0.15132378
2.5550714 2.9488232 -0.22026154
2.5716784 2.9680941 -0.29108527
2.5796688 2.9773164 -0.36170539
2.5899646 3.2677224 -0.43236181
2.5491135 3.2161813 -0.49814987
2.5445802 3.2104616 -0.56968617
2.5704215 2.9477758 -0.15147859
2.5603857 2.9362667 -0.21992338
2.5809901 2.9600003 -0.29108527
2.5837741 2.9631929 -0.36097392
2.5902932 3.2471285 -0.4307116
2.52949 3.170907 -0.49236584
2.5101819 3.146703 -0.55976897
2.5759325 2.9323292 -0.15116897
2.5816731 2.9388642 -0.22082517
2.6207807 2.9834874 -0.29433763
2.5972462 2.9566956 -0.36133966
2.6084085 3.2453656 -0.431743
2.5348759 3.153877 -0.49116084
2.4993603 3.109689 -0.5548104
2.6012318 2.9393308 -0.15202041
2.6162474 2.9562984 -0.22285418
2.6396289 2.9828236 -0.29522461
2.6146648 2.9546137 -0.36225396
2.5777202 3.1832194 -0.42472947
2.5339236 3.1291354 -0.48875082
2.4533956 3.0296915 -0.54213846
2.6295061 2.952538 -0.22319235
2.6954136 3.0266485 -0.30039883
2.6106887 2.9315119 -0.36042532
2.5814238 3.1673954 -0.42369807
2.5148923 3.0857615 -0.48320779
2.4553926 3.0127556 -0.54048562
2.6345248 2.9364324 -0.15279445
2.6576455 2.9622025 -0.22465776
2.4961708 3.0399699 -0.33825579
2.6320555 2.9337831 -0.36188823
2.5841787 3.1471505 -0.42225412
2.5161059 3.0642481 -0.48127979
2.4425337 2.9746478 -0.53525156
2.5022154 3.0246592 -0.3375704
2.6467969 2.9285491 -0.36243683
2.5766754 3.1146657 -0.41915992
2.4754322 2.9922838 -0.47139871
2.4534199 2.9656756 -0.53525156
2.5117054 3.0167832 -0.3375704
2.5355334 3.045403 -0.41090876
2.4886315 2.9890697 -0.47212172
2.4690621 2.965565 -0.5366289
2.5227456 3.0075572 -0.3375704
2.5236661 3.0086548 -0.40719572
2.4842589 2.9616745 -0.4692297
2.4773688 2.9534602 -0.53607798
2.4749174 3.2040181 -0.27643001
2.5324657 2.9967687 -0.33739904
2.5256882 2.9887488 -0.40575176
2.4963789 2.9540658 -0.46947071
2.4792268 2.933769 -0.53414965
2.4568024 3.159996 -0.27329651
2.5483224 2.9963875 -0.33825579
2.5518196 3.0004995 -0.40843341
2.4876392 2.9250345 -0.4660967
2.4755979 2.9108758 -0.53139484
2.4438362 3.1429791 -0.76436949
2.4428163 3.1415541 -0.83405101
2.4769812 3.1619656 -0.27425018
2.5515087 2.9779482 -0.33722767
2.5563281 2.9835732 -0.40740201
2.4918845 2.9083588 -0.46489167
2.484961 2.9002786 -0.53111941
2.4423637 3.1174386 -0.69053292
2.4177887 3.086071 -0.75267959
2.4398274 3.1140893 -0.82912791
2.4799001 3.141902 -0.27329651
2.5780306 2.9866776 -0.33928394
2.5542476 2.9591246 -0.40533921
2.5064192 2.9037149 -0.46561468
2.4994576 2.8956499 -0.53194582
2.4391239 3.0899079 -0.68641031
2.4376023 3.0879803 -0.75531924
2.4269671 3.0743973 -0.82092279
2.4872761 3.130971 -0.27302402
2.5834806 2.9740508 -0.33876988
2.5465715 2.9315619 -0.40265757
2.4920926 2.8688467 -0.46127665
2.4994485 2.8773148 -0.5300175
2.4889224 3.1328187 -0.6270659
2.4279833 3.0560048 -0.68057001
2.4399605 3.0710802 -0.75305665
2.4195659 3.045301 -0.81517923
2.5186849 3.1467583 -0.27520385
2.6048617 2.976558 -0.34014073
2.5468185 2.9102323 -0.40100732
2.5169733 2.8761284 -0.46392769
2.5060639 2.8636625 -0.52919108
2.4658148 3.0804837 -0.61839539
2.4403989 3.0486233 -0.68091357
2.4401534 3.0483165 -0.74966282
2.4160316 3.0180748 -0.81025612
2.4601324 3.0506186 -0.1981163
2.4851089 3.0815897 -0.27029923
2.6144361 2.9654961 -0.33996937
2.5469434 2.8889403 -0.39935711
2.518307 2.8564589 -0.46224067
2.5126131 2.8500004 -0.5283646
2.472127 3.0652733 -0.61715668
2.457741 3.0473266 -0.68263131
2.4513094 3.0393522 -0.74966282
2.4283061 3.0107229 -0.81066638
2.4608927 3.0320184 -0.19740947
2.470886 3.0443311 -0.26771069
2.6250622 2.9587586 -0.34014073
2.5507257 2.8749723 -0.39853197
2.5299039 2.8515036 -0.46272266
2.5176101 2.8376472 -0.52753818
2.4418974 3.0084 -0.60724753
2.4524016 3.0212333 -0.6785087
2.4336131 2.9980869 -0.74136674
2.420481 2.9818025 -0.80492282
2.5105093 3.0700846 -0.13017541
2.4833691 3.036895 -0.19831826
2.476975 3.0290759 -0.26716572
2.6504958 2.9654601 -0.34202564
2.4683127 3.3041484 -0.40344778
2.5705256 2.8759868 -0.39997593
2.5429842 2.8451726 -0.46320468
2.5425148 2.8446474 -0.53056842
2.4516563 2.9979002 -0.60693789
2.4659531 3.015275 -0.67919582
2.4458287 2.9906676 -0.74174386
2.4437859 2.9880633 -0.80902535
2.5090344 3.045435 -0.12951928
2.4894028 3.021606 -0.19791435
2.4753728 3.0045767 -0.26580334
2.6826804 2.9794188 -0.34476733
2.4720266 3.2839475 -0.40208477
2.5717316 2.8561974 -0.39853197
2.5507383 2.8328822 -0.46272266
2.5396688 2.8205881 -0.52781367
2.4563456 2.9812696 -0.60538954
2.4644589 2.9910107 -0.67576033
2.4467816 2.9695563 -0.73872709
2.4422734 2.9639795 -0.80492282
2.5083826 3.0252273 -0.12899438
2.4874086 2.9999316 -0.19700556
2.4924414 3.0060015 -0.26662078
2.4955544 3.2936168 -0.40422663
2.5900421 2.8584232 -0.39997593
2.5662911 2.832211 -0.46392769
2.5538378 2.8184676 -0.52891558
2.4593933 2.9659331 -0.60384125
2.4662974 2.9741535 -0.67369902
2.4510837 2.9558072 -0.73721874
2.4478245 2.951772 -0.80369204
2.500231 2.9930019 -0.1280102
2.4894233 2.9800642 -0.19629872
2.4944875 2.9861264 -0.26566708
2.4691303 3.2341657 -0.32602271
2.4906986 3.2622986 -0.40150064
2.6192775 2.8694808 -0.40286386
2.5833471 2.8301182 -0.46513268
2.5668218 2.8120143 -0.52946651
2.4753146 2.9629645 -0.60507989
2.4645493 2.9499738 -0.67026353
2.46316 2.9483109 -0.7375958
2.4623919 2.9472868 -0.80492282
2.5227683 2.9975824 -0.1286007
2.4951842 2.9648068 -0.19589481
2.5105548 2.9830704 -0.26621205
2.4858298 3.2314148 -0.32666165
2.5111346 3.2641916 -0.40286362
2.6445889 2.8759692 -0.40513292
2.5775759 2.803093 -0.46224067
2.569066 2.7938387 -0.52781367
2.4823408 2.949337 -0.60415089
2.486764 2.9544876 -0.67335546
2.4613016 2.9242363 -0.73382485
2.464354 2.9277589 -0.80205101
2.5308812 2.988117 -0.12853509
2.5135229 2.9676228 -0.19660164
2.530231 2.9873493 -0.26730198
2.5032926 3.2330472 -0.32762009
2.5713415 3.3208141 -0.41084692
2.602551 2.8124683 -0.46513268
2.5805213 2.788662 -0.5283646
2.4915941 2.941524 -0.60415089
2.4883924 2.9376402 -0.67129421
2.4679372 2.913492 -0.73307067
2.4722743 2.918509 -0.80164075
2.5405185 2.9773002 -0.12846948
2.5243831 2.9583902 -0.19660164
2.4716372 3.168108 -0.25055048
2.5320969 2.9674304 -0.2663483
2.5004098 3.2049885 -0.32570323
2.5920665 3.3223529 -0.4122099
2.6087804 2.7985537 -0.46440968
2.6623144 2.8559821 -0.54296488
2.494663 2.9233539 -0.60229295
2.5132115 2.9449861 -0.67507321
2.4862492 2.9133914 -0.73533326
2.4829545 2.9094281 -0.80164075
2.443202 3.1303084 -0.90172964
2.5475047 2.9634211 -0.12827264
2.5482302 2.9642651 -0.19761142
2.4881666 3.1653051 -0.25104836
2.5559635 2.9732609 -0.26771069
2.5833135 3.2862275 -0.40889975
2.6489208 2.8208141 -0.46971172
2.4667177 2.869242 -0.59300303
2.4828854 2.8879461 -0.66407967
2.4841058 2.8893657 -0.73156232
2.4616978 2.8632007 -0.79138434
2.4209013 3.0784066 -0.88932866
2.5646489 2.9644737 -0.12866631
2.5457683 2.9426496 -0.19670263
2.4857132 3.1418183 -0.24980369
2.5600696 2.9591804 -0.26716572
2.5923896 3.2765346 -0.40870506
2.4757195 2.8614786 -0.59300303
2.476476 2.862252 -0.65995711
2.4995966 2.888974 -0.73344779
2.4425027 2.8228867 -0.78235871
2.4245081 3.0631394 -0.88711417
2.5728703 2.95204 -0.12853509
2.5460374 2.9212527 -0.19589481
2.4972119 3.1326866 -0.24980369
2.5944965 2.9768534 -0.26961803
2.6006591 3.2623415 -0.4081209
2.487489 2.8538747 -0.59331274
2.474004 2.8383036 -0.65652162
2.4559641 2.8176074 -0.71760982
2.4476879 2.8080134 -0.78071767
2.4089661 3.0206864 -0.87737054
2.4662836 3.0923371 -0.96751177
2.5551286 3.2033911 -1.0739175
2.5704594 3.2223809 -1.152128
2.6034558 2.9651215 -0.12951928
2.585721 2.9449229 -0.1981163
2.508677 3.123513 -0.24980369
2.6001239 2.9613266 -0.26907307
2.6125987 3.2527878 -0.4081209
2.4888062 2.8343453 -0.5911451
2.4765899 2.8203337 -0.65446031
2.4675708 2.8100626 -0.71798694
2.459255 2.8004942 -0.78112793
2.4151347 3.0057554 -0.87559897
2.4520462 3.051475 -0.95753253
2.5365543 3.1563039 -1.0612414
2.5557063 3.1799078 -1.1402837
2.5902572 2.9314628 -0.12840387
2.5962827 2.938282 -0.19821727
2.4908707 3.0814641 -0.24706544
2.6305537 2.9770675 -0.2712529
2.5990293 3.2151525 -0.40442133
2.500315 2.829474 -0.59176439
2.4880474 2.8154922 -0.65514737
2.4828897 2.8096557 -0.71987242
2.469337 2.7942212 -0.78153819
2.4123018 2.9829879 -0.87117004
2.4616203 3.0437567 -0.95753253
2.5257745 3.1227479 -1.0526216
2.5535698 3.1568873 -1.1348999
2.6156039 2.9383733 -0.12912561
2.4842727 3.0504737 -0.17561834
2.629612 2.9541099 -0.19993389
2.4769375 3.0413585 -0.24457611
2.4813735 3.0468054 -0.31484115
2.5869129 3.1762807 -0.40072176
2.5054135 2.8143876 -0.59052575
2.5009701 2.8092973 -0.6558345
2.493171 2.8005366 -0.71987242
2.4769585 2.7822278 -0.78071767
2.4133635 2.9620304 -0.86762691
2.453125 3.010617 -0.9499293
2.4382081 2.9919901 -1.0115511
2.5468705 3.1251099 -1.1268243
2.4941692 3.0398033 -0.17552915
2.6364212 2.9399908 -0.19963095
2.4880681 3.0322597 -0.24457611
2.4912596 3.036149 -0.31468141
2.5884359 3.1544676 -0.39916405
2.515712 2.8051858 -0.59052575
2.51125 2.800112 -0.6558345
2.5191553 2.8089266 -0.72439754
2.5041296 2.7920747 -0.78605103
2.425441 2.9546726 -0.86806983
2.4530487 2.9880917 -0.94565248
2.441792 2.974062 -1.0085089
2.4531884 2.98773 -1.0805237
2.4897125 3.0150058 -0.17454804
2.4734323 2.9951844 -0.24221125
2.4893606 3.0144725 -0.31324378
2.5957983 3.1432507 -0.39877462
2.5324552 2.8060696 -0.59238374
2.5213544 2.7936716 -0.65617806
2.5213873 2.7937081 -0.72251207
2.5889575 2.8684754 -0.80984586
2.4272583 2.9380167 -0.86541247
2.4339638 2.945924 -0.93472284
2.4437292 2.957428 -1.0054666
2.4380226 2.9503121 -1.0697562
2.5148025 3.0227559 -0.17552915
2.4984369 3.0029778 -0.24358039
2.5067677 3.0129912 -0.31404245
2.5983896 3.1230047 -0.39741164
2.5334187 2.786535 -0.5902161
2.5315769 2.7844114 -0.65617806
2.5871046 2.845485 -0.73834997
2.5968199 2.8560705 -0.80902535
2.4417534 2.9335976 -0.86674112
2.4372876 2.9280245 -0.93187159
2.4483633 2.9410169 -1.0029314
2.3822691 2.8614204 -1.0406839
2.5168803 3.0027995 -0.17490481
2.4978859 2.9800324 -0.24246018
2.5190747 3.005311 -0.31420219
2.5612283 3.0554926 -0.3900125
2.5556257 2.7903447 -0.59300303
2.5524113 2.7867377 -0.65892643
2.6333351 2.8750906 -0.74853152
2.6231363 2.8638551 -0.81394845
2.4474764 2.9186506 -0.86496955
2.4629831 2.9369345 -0.93757403
2.4616127 2.9349883 -1.0039455
2.3816001 2.8393877 -1.0358384
2.5252912 2.9905014 -0.17472643
2.5062158 2.9678071 -0.24221125
2.5287867 2.9945347 -0.31404245
2.5300288 2.9958997 -0.38358691
2.5644958 2.7795069 -0.59269339
2.6494536 2.8714874 -0.68125713
2.6651657 2.8885162 -0.75456506
2.6322877 2.852783 -0.81353819
2.4506054 2.9007215 -0.8623122
2.4549241 2.9056277 -0.93044603
2.4024282 2.8431921 -0.97555107
2.3808019 2.8173985 -1.030993
2.5476122 2.9977779 -0.17561834
2.5129418 2.9568768 -0.24196231
2.5394728 2.9880948 -0.31420219
2.5484514 2.9985535 -0.38494992
2.6431248 2.8467317 -0.60879582
2.6879554 2.8949142 -0.68881518
2.6705399 2.8760571 -0.82256383
2.4698129 2.9048955 -0.86585534
2.4401298 2.8697805 -0.92141718
2.4063354 2.8297353 -0.9735229
2.3996241 2.8216436 -1.0353
2.5429893 2.9702077 -0.17454804
2.5439246 2.9711952 -0.31340352
2.5697813 3.0012887 -0.38650763
2.6805353 2.865886 -0.6149891
2.6997838 2.8862636 -0.82830739
2.4664867 2.87953 -0.86098355
2.4240904 2.8298342 -0.91143793
2.4129145 2.816489 -0.97200179
2.399924 2.8011279 -1.030993
2.5483954 2.9576631 -0.17428046
2.5395253 2.9472644 -0.24258465
2.5753694 2.9888635 -0.31611905
2.5714016 2.9841533 -0.38533935
2.4462323 2.8377905 -0.850797
2.4317002 2.8207333 -0.9109627
2.4268041 2.8147559 -0.97402996
2.423806 2.81108 -1.0374535
2.5539796 2.9422674 -0.1739237
2.5581615 2.9469812 -0.24333145
2.5719311 2.9628437 -0.31436193
2.5588341 2.9476521 -0.38183451
2.4527805 2.8243878 -0.84946829
2.4471178 2.8176687 -0.91286355
2.4396417 2.8087635 -0.97504401
2.4315665 2.799269 -1.0363768
2.5844753 2.9554474 -0.17526157
2.5820861 2.9526112 -0.24457611
2.589335 2.9609005 -0.3151606
2.5565171 2.9232702 -0.37988734
2.4554105 2.8065717 -0.84681094
2.4471948 2.796984 -0.90906191
2.5123465 2.8711448 -0.99988914
2.5014281 2.8584657 -1.0616806
2.5952902 2.945955 -0.17526157
2.6179616 2.9715853 -0.24694097
2.610713 2.9633574 -0.3164385
2.5751092 2.9228418 -0.38105565
2.464391 2.7960901 -0.84636807
2.4728448 2.8054845 -0.91476434
2.5305288 2.8706248 -1.0029314
2.5233521 2.8622823 -1.0665259
2.6124852 2.9467576 -0.17579672
2.6087449 2.9424355 -0.24519844
2.6226549 2.9581246 -0.31675798
2.5697532 2.8983541 -0.37891379
2.4848106 2.8014662 -0.85035408
2.547394 2.8718228 -0.93899965
2.5421026 2.8655553 -1.0039455
2.524662 2.8456955 -1.0632957
2.6166134 2.9297116 -0.17535077
2.6494157 2.9663348 -0.31867483
2.5909667 2.9007924 -0.3804715
2.4911633 2.787977 -0.84902543
2.5462523 2.8494294 -0.93472284
2.5474315 2.8504486 -1.0019174
2.5453436 2.8479123 -1.0676026
2.5205989 3.0601244 -0.10665479
2.6674252 2.9646606 -0.17802651
2.5962555 2.8853579 -0.37969264
2.563997 2.8484073 -0.87028426
2.5696766 2.8545163 -0.93947488
2.5669229 2.8511572 -1.0054666
2.569942 2.85431 -1.0735248
2.5187166 3.0383379 -0.10617073
2.6146598 2.8875155 -0.38105565
2.5703142 2.8374472 -0.86939847
2.5734143 2.8406703 -0.93757403
2.5810635 2.848814 -1.0074948
2.5750163 2.8419402 -1.0719097
2.5234277 3.0214136 -0.10590181
2.6668105 2.9235008 -0.38709179
2.5938432 2.8424139 -0.8738274
2.5916662 2.8398292 -0.94042528
2.5888791 2.8364768 -1.0064807
2.6139834 2.8637812 -1.0837541
2.5331976 3.0106146 -0.10584802
2.6200831 2.8501179 -0.87914211
2.6165204 2.8460431 -0.94565248
2.6280658 2.8583007 -1.0176357
2.6609674 2.8938818 -1.0988286
2.5387673 2.9980643 -0.10568666
2.6171041 2.8289876 -0.8751561
2.6162133 2.8278267 -0.94232607
2.6370325 2.8500302 -1.0176357
2.5406556 2.9780922 -0.10531017
2.6513896 2.8450589 -0.88312817
2.6437793 2.8366942 -0.94850367
2.5684948 2.9884713 -0.10600937
2.6938372 2.8694482 -0.89375758
2.6714451 2.8453975 -0.95468134
2.5608678 2.9607296 -0.10531017
2.5914037 2.9739335 -0.10611694
2.6299844 2.9959679 -0.10724642
2.6354125 2.9831958 -0.10708506
