# .PCD v0.7 - Point Cloud Data file format
VERSION 0.7
FIELDS x y z
SIZE 4 4 4
TYPE F F F
COUNT 1 1 1
WIDTH 265
HEIGHT 1
VIEWPOINT 0 0 0 1 0 0 0
POINTS 265
DATA ascii
1.6892655 12.399535 -0.70643759
1.7293144 12.402078 -0.7068885
1.720228 12.338487 -0.92337155
1.7105713 12.269223 -1.1374153
1.7822008 12.447636 -0.48702264
1.7764568 12.407516 -0.70756483
1.7778759 12.418973 -0.92987627
1.7577865 12.278643 -1.1388782
1.8275212 12.439042 -0.48694524
1.8265648 12.432532 -0.70936841
1.8230919 12.410399 -0.92972839
1.8065412 12.297734 -1.1412555
1.8692609 12.451027 -0.48764187
1.8596845 12.387239 -0.70711398
1.8599986 12.390804 -0.92869359
1.8481233 12.311693 -1.143084
1.9133639 12.434216 -0.48725483
1.904466 12.376392 -0.7068885
1.9014577 12.358276 -0.9267717
1.8941441 12.310742 -1.1436327
1.9623479 12.448834 -0.48810628
1.949815 12.369328 -0.7068885
1.9498456 12.370926 -0.92825007
1.9426634 12.325358 -1.1456442
2.0001779 12.434716 -0.48779666
1.9905674 12.374971 -0.70756483
1.9893337 12.368678 -0.92854571
1.9820075 12.323127 -1.1460099
2.0512583 12.460825 -0.48911253
2.0362351 12.369562 -0.70767754
2.0372455 12.377048 -0.92972839
2.0323362 12.347222 -1.1489358
2.0995705 12.468988 -0.48973176
2.0911734 12.41912 -0.71094656
2.0888877 12.406868 -0.93253726
2.0838602 12.377007 -1.1524101
2.1438031 12.491877 -0.4908928
2.1551723 12.558125 -0.71928811
2.1321647 12.425361 -1.1575303
2.1992407 12.539052 -0.49306011
2.2008407 12.548175 -0.71917534
1.7354656 12.286241 -1.0670309
1.7462147 12.362339 -1.2946101
1.8055989 12.453002 -0.26445976
2.3340285 12.284325 -0.70587403
1.7816291 12.287685 -1.0677162
1.786375 12.320418 -1.2908971
1.8420739 12.429467 -0.26408154
2.3646526 12.23576 -0.70350683
1.8333687 12.370728 -1.0754273
1.8256551 12.318681 -1.2913096
1.8810093 12.379141 -0.26315701
2.4060082 12.209378 -0.7024923
1.8783979 12.361956 -1.0752559
1.8707931 12.311907 -1.2913096
1.9257532 12.368212 -0.26307297
1.924614 12.360894 -1.07577
1.9290663 12.38949 -1.3001796
1.9715039 12.405546 -0.2639975
1.9628117 12.350851 -1.0754273
2.319387 11.152838 -0.44119978
2.3767102 11.429479 -0.86527276
2.0119064 12.367176 -1.0774835
2.3712199 11.403076 -1.0693898
2.3643894 11.163813 -0.44197381
2.4045358 11.354348 -0.86024642
2.0582023 12.365616 -1.0779976
2.4134109 11.396256 -1.0695727
2.4023912 11.170007 -0.44251564
2.431021 11.303122 -0.65266854
2.4347432 11.321389 -0.85832459
2.1020398 12.388556 -1.080568
2.4299393 11.299051 -1.0611609
2.4471617 11.178697 -0.44321227
2.4685895 11.27658 -0.65165406
2.4732363 11.29875 -0.85728973
2.1579888 12.441632 -1.0858799
2.4645221 11.258941 -1.058235
2.4981115 11.214519 -0.44499254
2.5129428 11.281099 -0.65244311
2.5102954 11.270142 -0.85581136
2.5040398 11.242056 -1.0575037
2.5386183 11.230007 -0.44592139
1.6829526 12.424526 -0.63383079
2.5466099 11.265359 -0.6519922
1.6777058 12.38579 -0.85340446
2.5448096 11.258308 -0.85551572
2.5331976 11.206938 -1.0549436
2.5905085 11.267371 -0.44777906
1.7262766 12.402447 -0.63302296
2.5896721 11.263734 -0.65244311
1.7178642 12.342008 -0.85081589
2.5909719 11.270288 -0.85714191
2.5822883 11.232515 -1.058235
2.6399643 11.319511 -0.45017859
1.7646683 12.393007 -0.63282102
2.6259522 11.259432 -0.65266854
1.7715373 12.441248 -0.85803658
2.6295364 11.275689 -0.85817671
2.6216342 11.241803 -1.0598809
1.8251963 12.489904 -0.19057852
1.8267341 12.500427 -0.41467166
1.8155668 12.424009 -0.63473958
2.6745732 11.280819 -0.65447211
1.8119315 12.399132 -0.85558426
2.6766026 11.290257 -1.0653669
1.858216 12.39809 -0.18928023
1.8686864 12.467949 -0.41381869
1.8516166 12.354059 -0.63150835
1.8547025 12.374648 -0.85435814
1.9048595 12.399103 -0.189401
1.9155854 12.46892 -0.41408116
1.8990073 12.36101 -0.63221514
1.8976215 12.35199 -0.85326821
1.9422536 12.38318 -0.18925004
1.9507215 12.437168 -0.41322818
1.9384501 12.35893 -0.63241714
1.9351803 12.338081 -0.85272324
1.9946035 12.419415 -0.18991429
2.3697731 11.503858 -0.24685153
1.9978777 12.439802 -0.41355625
1.9907031 12.395129 -0.63463861
1.9867167 12.370308 -0.85544807
2.048583 12.504479 -0.41591829
2.0328631 12.408526 -0.63564837
2.0271823 12.373852 -0.85612923
2.3890128 11.415654 -1.0029439
2.4905822 11.900991 -1.2607802
2.4305182 11.405324 -0.24508651
2.0986955 12.522515 -0.41677126
2.0793195 12.406901 -0.63595128
2.0817559 12.421439 -0.85994393
2.4167166 11.340559 -0.99711782
2.4690886 11.586317 -1.2283944
2.4714568 11.39243 -0.24500246
2.147383 12.531104 -0.64271677
2.4460144 11.275152 -0.99214852
2.4516492 11.301126 -1.1991028
2.5029342 11.365083 -0.24458222
2.1853659 12.516425 -0.64231282
2.4767098 11.246006 -0.99026358
2.4713097 11.221485 -1.1914704
2.5144265 11.221297 -0.98889273
2.5085073 11.194881 -1.1896138
2.5577517 11.22172 -0.98974949
2.5521741 11.197249 -1.1908516
1.7506735 12.426791 -0.56021267
1.7419959 12.363633 -0.77853614
1.7322934 12.29477 -0.9948405
2.6006639 11.220035 -0.99043494
1.7406359 12.35242 -1.2202737
2.6008332 11.220765 -1.1943582
1.7916993 12.435073 -0.56083703
1.7916476 12.433177 -0.78326589
1.7899612 12.421474 -1.0055429
2.6395481 11.227327 -0.99180579
1.7777299 12.33507 -1.2191055
2.6547379 11.291937 -1.2028158
1.8346344 12.410634 -0.56003433
1.8374974 12.428501 -0.78339034
1.8316857 12.389192 -1.0034662
2.6950381 11.277658 -0.99711782
1.8165227 12.285151 -1.2148217
1.8715258 12.39098 -0.55940998
1.8675891 12.363456 -0.77965635
1.865834 12.351836 -1.0009105
1.8625422 12.328588 -1.2196896
1.9184566 12.393909 -0.55985594
1.9156393 12.374281 -0.78077656
1.9159731 12.376437 -1.0034662
1.9202029 12.402328 -1.2276728
2.289825 11.230769 -0.37622267
1.9657468 12.398635 -0.56039107
1.9569166 12.341547 -0.77915847
1.9575756 12.345703 -1.0015495
1.971882 12.434525 -1.2315671
2.3214467 11.205904 -0.37563217
2.007241 12.408177 -0.5611046
2.0004611 12.364896 -0.78102547
2.3630404 11.406683 -0.79536641
2.0027192 12.378853 -1.0047442
2.0096648 12.420409 -1.2307884
2.3612647 11.191453 -0.37543532
2.0572739 12.428334 -0.56235331
2.0493534 12.379144 -0.78239459
2.388767 11.321802 -0.79005307
2.0506814 12.387164 -1.0060221
2.0522482 12.395287 -1.2290359
2.4375334 11.346888 -0.38094679
2.1041462 12.42859 -0.56271005
2.4307015 11.315084 -0.58505905
2.1017094 12.412879 -0.78500843
2.4289901 11.307118 -0.78964436
2.1023922 12.416912 -1.009057
2.1006563 12.405344 -1.2307884
2.4714646 11.331362 -0.38068435
2.1543915 12.486893 -0.56565338
2.4615545 11.285925 -0.58394831
2.4610989 11.283835 -0.78855443
2.5225081 11.365159 -0.38212782
2.2095106 12.53204 -0.56806159
2.4990077 11.259277 -0.58303952
2.2093756 12.529994 -0.79334766
2.4985485 11.257208 -0.7873283
2.5654676 11.361687 -0.38232464
2.5380585 11.2403 -0.58253461
2.2460861 12.470736 -0.79011154
2.5463836 11.27717 -0.78937185
2.6158795 11.41787 -0.38448986
2.5760348 11.243954 -0.58314049
2.2791328 12.43024 -0.78799558
2.5737786 11.234105 -0.78691953
2.6185882 11.240273 -0.5834434
2.6330452 11.302329 -0.79236913
2.6740384 11.290854 -0.58657372
2.3454802 12.283792 -0.77978081
2.685029 11.33726 -0.79550266
1.8623663 12.479266 -0.11583706
1.8594105 12.45946 -0.33889654
1.9023463 12.434795 -0.11548821
1.8999244 12.418964 -0.33798218
1.9438834 12.402054 -0.11524952
1.9417144 12.388215 -0.33733678
1.9831498 12.397848 -0.33776706
2.3829215 11.406404 -0.93366128
2.4889061 11.912685 -1.1904825
2.3941119 11.25472 -0.51365465
2.4123995 11.339718 -0.72289979
2.4114373 11.335195 -0.92854971
2.4115989 11.334982 -1.133626
2.4193332 11.200272 -0.51151407
2.4442189 11.314523 -0.72177958
2.4419844 11.304179 -0.92663288
2.4362681 11.276764 -1.1285634
2.4620841 11.199135 -0.5118708
2.4801002 11.280144 -0.7201615
2.4778347 11.26984 -0.92455631
2.4720261 11.242486 -1.1260321
2.5070398 11.207583 -0.51267356
2.5192482 11.261238 -0.71953917
2.5165126 11.24901 -0.92359787
2.5088694 11.213925 -1.1240849
2.5453329 11.213291 -0.51329792
2.554172 11.251322 -0.71941471
2.5487506 11.22744 -0.92247975
2.5480528 11.223458 -1.1258373
2.5904593 11.221408 -0.51410061
2.5967402 11.24772 -0.71978813
2.5988533 11.256873 -0.9256745
2.5914106 11.223741 -1.1268109
2.6384189 11.241015 -0.5154385
2.6461585 11.273107 -0.72202849
2.6460171 11.272503 -0.92775106
2.6466324 11.27424 -1.1328471
2.685287 11.281264 -0.51766831
2.688957 11.295807 -0.72401994
2.6934211 11.31456 -0.9319042
2.2909894 11.456959 -0.31431699
2.3082566 11.357622 -0.3117891
2.3543279 11.370621 -0.31238073
2.390861 11.367081 -0.31248832
2.4316702 11.354332 -0.31238073
2.4728436 11.34339 -0.31232697
2.5182996 11.351816 -0.31281102
2.5574629 11.359452 -0.3132413
