# .PCD v0.7 - Point Cloud Data file format
VERSION 0.7
FIELDS x y z normal_x normal_y normal_z curvature
SIZE 4 4 4 4 4 4 4
TYPE F F F F F F F
COUNT 1 1 1 1 1 1 1
WIDTH 794
HEIGHT 1
VIEWPOINT 0 0 0 1 0 0 0
POINTS 794
DATA ascii
-0.44612908 0.63812923 -0.49867067 0 0 0 7.0523921e-38
-0.43009222 0.63230276 -0.49867067 0 0 0 7.0523921e-38
-0.40036988 0.65532875 -0.40491748 0 0 0 7.0523921e-38
-0.41485524 0.61609983 -0.49775633 0 0 0 7.0523921e-38
-0.38358247 0.651227 -0.40506533 0 0 0 7.0523921e-38
-0.39819205 0.61204147 -0.4979392 0 0 0 7.0523921e-38
-0.36553061 0.64232922 -0.40491748 0 0 0 7.0523921e-38
-0.38028276 0.60319996 -0.49775633 0 0 0 7.0523921e-38
-0.34822881 0.63150358 -0.40462184 0 0 0 7.0523921e-38
-0.35673738 0.60918331 -0.4990364 0 0 0 7.0523921e-38
-0.32218504 0.65143013 -0.40669149 0 0 0 7.0523921e-38
-0.3415072 0.60121727 -0.49885353 0 0 0 7.0523921e-38
-0.28995776 0.67853689 -0.21394318 0 0 0 7.0523921e-38
-0.30487549 0.64045572 -0.40639582 0 0 0 7.0523921e-38
-0.32798982 0.58103895 -0.49757347 0 0 0 7.0523921e-38
-0.28719401 0.63024521 -0.21224031 0 0 0 7.0523921e-38
-0.23041677 0.7746191 -0.31810546 0 0 0 7.0523921e-38
-0.28032064 0.64798498 -0.4075785 0 0 0 7.0523921e-38
-0.30730546 0.5793643 -0.49812207 0 0 0 7.0523921e-38
-0.27560616 0.61277437 -0.2117759 0 0 0 7.0523921e-38
-0.25078368 0.67531538 -0.3124693 0 0 0 7.0523921e-38
-0.26719666 0.63422203 -0.40698716 0 0 0 7.0523921e-38
-0.2936579 0.56754827 -0.49757347 0 0 0 7.0523921e-38
-0.26517701 0.58494377 -0.21092446 0 0 0 7.0523921e-38
-0.24680948 0.63073111 -0.31021482 0 0 0 7.0523921e-38
-0.24404907 0.63787079 -0.40787417 0 0 0 7.0523921e-38
-0.26927805 0.57497549 -0.4990364 0 0 0 7.0523921e-38
-0.24366188 0.58488703 -0.21123406 0 0 0 7.0523921e-38
-0.23788309 0.5991416 -0.30874941 0 0 0 7.0523921e-38
-0.22234631 0.63772154 -0.4084655 0 0 0 7.0523921e-38
-0.25080276 0.56752491 -0.4990364 0 0 0 7.0523921e-38
-0.23233342 0.56732655 -0.21076965 0 0 0 7.0523921e-38
-0.22423768 0.58711624 -0.30841124 0 0 0 7.0523921e-38
-0.20329118 0.63857603 -0.40905684 0 0 0 7.0523921e-38
-0.23649693 0.5573988 -0.49867067 0 0 0 7.0523921e-38
-0.20854235 0.57266951 -0.21131147 0 0 0 7.0523921e-38
-0.20571828 0.57950115 -0.30841124 0 0 0 7.0523921e-38
-0.18382144 0.63272667 -0.40920469 0 0 0 7.0523921e-38
-0.4209938 0.68709517 -0.47174177 0 0 0 7.0523921e-38
-0.20667458 0.5774374 -0.50141364 0 0 0 7.0523921e-38
-0.45125532 0.60372591 -0.55963629 0 0 0 7.0523921e-38
-0.44267857 0.62735462 -0.65817481 0 0 0 7.0523921e-38
-0.44415808 0.62327862 -0.75342923 0 0 0 7.0523921e-38
-0.18930578 0.56684065 -0.21138887 0 0 0 7.0523921e-38
-0.18414879 0.57918835 -0.30886215 0 0 0 7.0523921e-38
-0.15898609 0.63968658 -0.41038737 0 0 0 7.0523921e-38
-0.41446817 0.64652967 -0.46865737 0 0 0 7.0523921e-38
-0.1881907 0.56975746 -0.50141364 0 0 0 7.0523921e-38
-0.42650306 0.6137495 -0.5614928 0 0 0 7.0523921e-38
-0.42127311 0.62799454 -0.6591388 0 0 0 7.0523921e-38
-0.43506265 0.59043503 -0.74957252 0 0 0 7.0523921e-38
-0.17116618 0.56573296 -0.21162109 0 0 0 7.0523921e-38
-0.15666842 0.60014105 -0.31055298 0 0 0 7.0523921e-38
-0.14294577 0.63295841 -0.41038737 0 0 0 7.0523921e-38
-0.39840519 0.64060402 -0.46865737 0 0 0 7.0523921e-38
-0.15767741 0.5979929 -0.50488806 0 0 0 7.0523921e-38
-0.40086234 0.63397551 -0.56438071 0 0 0 7.0523921e-38
-0.40595841 0.62022877 -0.65889782 0 0 0 7.0523921e-38
-0.41711009 0.59014606 -0.75039899 0 0 0 7.0523921e-38
-0.1456809 0.57447243 -0.21231772 0 0 0 7.0523921e-38
-0.11097932 0.65624285 -0.41290054 0 0 0 7.0523921e-38
-0.38598371 0.61683369 -0.46711516 0 0 0 7.0523921e-38
-0.12819862 0.61578894 -0.50744814 0 0 0 7.0523921e-38
-0.38705814 0.6139679 -0.56293672 0 0 0 7.0523921e-38
-0.39080107 0.6039834 -0.65769279 0 0 0 7.0523921e-38
-0.40483654 0.56654358 -0.74791968 0 0 0 7.0523921e-38
-0.08196497 0.67203236 -0.41482237 0 0 0 7.0523921e-38
-0.36029136 0.62844372 -0.46882871 0 0 0 7.0523921e-38
-0.10642791 0.61513996 -0.50817961 0 0 0 7.0523921e-38
-0.36138797 0.62555075 -0.56499952 0 0 0 7.0523921e-38
-0.36307013 0.6211133 -0.66082579 0 0 0 7.0523921e-38
-0.35268795 0.64850187 -0.76114255 0 0 0 7.0523921e-38
-0.053919077 0.69250917 -0.4170399 0 0 0 7.0523921e-38
-0.34642184 0.61676455 -0.46831465 0 0 0 7.0523921e-38
-0.084125042 0.62286377 -0.50964254 0 0 0 7.0523921e-38
-0.34823489 0.61202669 -0.56417441 0 0 0 7.0523921e-38
-0.3392818 0.63542318 -0.66347682 0 0 0 7.0523921e-38
-0.34369874 0.62388086 -0.7583878 0 0 0 7.0523921e-38
-0.30726862 0.66264915 -0.11565125 0 0 0 7.0523921e-38
-0.02941227 0.69705725 -0.41807473 0 0 0 7.0523921e-38
-0.32994986 0.60402155 -0.46780059 0 0 0 7.0523921e-38
-0.06867218 0.60743761 -0.50891107 0 0 0 7.0523921e-38
-0.33464777 0.59187794 -0.56273043 0 0 0 7.0523921e-38
-0.32774818 0.6097126 -0.66106683 0 0 0 7.0523921e-38
-0.33004701 0.60377073 -0.75645947 0 0 0 7.0523921e-38
-0.30715644 0.61540937 -0.11472671 0 0 0 7.0523921e-38
-0.0067439079 0.70451641 -0.4192574 0 0 0 7.0523921e-38
-0.31257117 0.60154247 -0.46814328 0 0 0 7.0523921e-38
-0.041465282 0.62592983 -0.51147115 0 0 0 7.0523921e-38
-0.30935001 0.60979176 -0.5654121 0 0 0 7.0523921e-38
-0.31613433 0.59241772 -0.65962082 0 0 0 7.0523921e-38
-0.31916249 0.58466291 -0.75453115 0 0 0 7.0523921e-38
-0.29440594 0.59321833 -0.11439051 0 0 0 7.0523921e-38
0.026833773 0.72888851 -0.42191842 0 0 0 7.0523921e-38
-0.29546142 0.59054375 -0.46780059 0 0 0 7.0523921e-38
0.022642374 0.71949577 -0.52171153 0 0 0 7.0523921e-38
-0.30024195 0.57843256 -0.56273043 0 0 0 7.0523921e-38
-0.29613698 0.58883238 -0.66010278 0 0 0 7.0523921e-38
-0.30065143 0.57739544 -0.75453115 0 0 0 7.0523921e-38
-0.28179121 0.57100248 -0.11405431 0 0 0 7.0523921e-38
-0.2769289 0.58318949 -0.46780059 0 0 0 7.0523921e-38
0.040827036 0.7091589 -0.52152866 0 0 0 7.0523921e-38
-0.27954245 0.57663918 -0.56334931 0 0 0 7.0523921e-38
-0.2820251 0.57041597 -0.65865678 0 0 0 7.0523921e-38
-0.27482653 0.58845901 -0.75728589 0 0 0 7.0523921e-38
-0.26895332 0.55724049 -0.11388622 0 0 0 7.0523921e-38
-0.25511193 0.59161949 -0.46917143 0 0 0 7.0523921e-38
-0.26444244 0.56844425 -0.56314301 0 0 0 7.0523921e-38
-0.26175284 0.57512522 -0.66010278 0 0 0 7.0523921e-38
-0.26634502 0.5637188 -0.75453115 0 0 0 7.0523921e-38
-0.24300718 0.56831026 -0.11430646 0 0 0 7.0523921e-38
-0.23957968 0.57673454 -0.46848601 0 0 0 7.0523921e-38
-0.24374223 0.56650448 -0.56376183 0 0 0 7.0523921e-38
-0.24477363 0.56396914 -0.65962082 0 0 0 7.0523921e-38
-0.24492478 0.56359768 -0.75563306 0 0 0 7.0523921e-38
-0.21695304 0.57925749 -0.11472671 0 0 0 7.0523921e-38
-0.213521 0.587605 -0.47019956 0 0 0 7.0523921e-38
-0.22302866 0.5644803 -0.56438071 0 0 0 7.0523921e-38
-0.22105408 0.56928301 -0.66130781 0 0 0 7.0523921e-38
-0.21971202 0.57254744 -0.75811231 0 0 0 7.0523921e-38
-0.19846249 0.57161522 -0.11472671 0 0 0 7.0523921e-38
-0.19499993 0.57995033 -0.47019956 0 0 0 7.0523921e-38
-0.20001316 0.56788301 -0.5656184 0 0 0 7.0523921e-38
-0.207932 0.54882193 -0.65962082 0 0 0 7.0523921e-38
-0.20732594 0.55028057 -0.75590849 0 0 0 7.0523921e-38
-0.17026901 0.59451723 -0.1153991 0 0 0 7.0523921e-38
-0.37170517 0.74499655 -0.37942711 0 0 0 7.0523921e-38
-0.17298508 0.58803701 -0.4715704 0 0 0 7.0523921e-38
-0.1826601 0.56495333 -0.56603092 0 0 0 7.0523921e-38
-0.18066478 0.56971407 -0.66323584 0 0 0 7.0523921e-38
-0.1869719 0.55466604 -0.75756139 0 0 0 7.0523921e-38
-0.44901943 0.53459549 -0.83577824 0 0 0 7.0523921e-38
-0.4286623 0.58957481 -1.035123 0 0 0 7.0523921e-38
-0.42474115 0.59994411 -1.1323073 0 0 0 7.0523921e-38
-0.37280846 0.68369675 -0.37547615 0 0 0 7.0523921e-38
-0.14824677 0.59491301 -0.47294125 0 0 0 7.0523921e-38
-0.15103555 0.58832741 -0.5695377 0 0 0 7.0523921e-38
-0.16143537 0.56376743 -0.66347682 0 0 0 7.0523921e-38
-0.1616199 0.5633316 -0.76004064 0 0 0 7.0523921e-38
-0.43138087 0.52595282 -0.83546853 0 0 0 7.0523921e-38
-0.4441458 0.49143028 -0.92311537 0 0 0 7.0523921e-38
-0.45059645 0.47411919 -1.0128744 0 0 0 7.0523921e-38
-0.41847706 0.56004715 -1.1249226 0 0 0 7.0523921e-38
-0.3587364 0.67203665 -0.37506744 0 0 0 7.0523921e-38
-0.12686777 0.60097837 -0.47414073 0 0 0 7.0523921e-38
-0.13593793 0.57974482 -0.56933141 0 0 0 7.0523921e-38
-0.14095402 0.56800175 -0.66492283 0 0 0 7.0523921e-38
-0.14581943 0.55661154 -0.76004064 0 0 0 7.0523921e-38
-0.41152227 0.53117657 -0.83732653 0 0 0 7.0523921e-38
-0.43273246 0.47453356 -0.92105412 0 0 0 7.0523921e-38
-0.4426825 0.44808578 -1.0087264 0 0 0 7.0523921e-38
-0.41509295 0.52115631 -1.1175381 0 0 0 7.0523921e-38
-0.34132349 0.66118383 -0.37479496 0 0 0 7.0523921e-38
-0.099614382 0.61313152 -0.47602564 0 0 0 7.0523921e-38
-0.10325956 0.6046834 -0.57304442 0 0 0 7.0523921e-38
-0.11385274 0.58013391 -0.66757387 0 0 0 7.0523921e-38
-0.11563993 0.57599163 -0.76417279 0 0 0 7.0523921e-38
-0.38266933 0.55194998 -0.84197146 0 0 0 7.0523921e-38
-0.41392374 0.46952486 -0.92139763 0 0 0 7.0523921e-38
-0.42467129 0.44127178 -1.0087264 0 0 0 7.0523921e-38
-0.39890206 0.50875235 -1.1163073 0 0 0 7.0523921e-38
-0.32116008 0.65756416 -0.18030344 0 0 0 7.0523921e-38
-0.32324803 0.65213442 -0.37465873 0 0 0 7.0523921e-38
-0.076223373 0.61601925 -0.47705379 0 0 0 7.0523921e-38
-0.094214678 0.57474089 -0.5705691 0 0 0 7.0523921e-38
-0.081873894 0.603055 -0.67167085 0 0 0 7.0523921e-38
-0.078958035 0.60974503 -0.77050877 0 0 0 7.0523921e-38
-0.342291 0.60208559 -0.85157096 0 0 0 7.0523921e-38
-0.35693431 0.56374788 -0.94029284 0 0 0 7.0523921e-38
-0.40245461 0.44539165 -1.010989 0 0 0 7.0523921e-38
-0.37926328 0.50543165 -1.1171278 0 0 0 7.0523921e-38
-0.31301928 0.63084698 -0.1795817 0 0 0 7.0523921e-38
-0.29994762 0.66452312 -0.37602112 0 0 0 7.0523921e-38
-0.047427416 0.63821745 -0.47979549 0 0 0 7.0523921e-38
-0.062367439 0.60423183 -0.57469469 0 0 0 7.0523921e-38
-0.014813662 0.71240807 -0.68709499 0 0 0 7.0523921e-38
-0.051851749 0.62815332 -0.77436543 0 0 0 7.0523921e-38
-0.33709347 0.56830359 -0.84692603 0 0 0 7.0523921e-38
-0.34540975 0.54662085 -0.93823153 0 0 0 7.0523921e-38
-0.36427736 0.49802065 -1.0230559 0 0 0 7.0523921e-38
-0.36931121 0.48479748 -1.1138458 0 0 0 7.0523921e-38
-0.28253388 0.65364265 -0.083091274 0 0 0 7.0523921e-38
-0.29652941 0.61797428 -0.17938486 0 0 0 7.0523921e-38
-0.28187275 0.65532732 -0.37588489 0 0 0 7.0523921e-38
-0.017401934 0.65545082 -0.48219445 0 0 0 7.0523921e-38
0.013527155 0.72511482 -0.58934051 0 0 0 7.0523921e-38
0.025915861 0.75301933 -0.69360203 0 0 0 7.0523921e-38
-0.312868 0.57581663 -0.84940332 0 0 0 7.0523921e-38
-0.32631826 0.54128408 -0.93857509 0 0 0 7.0523921e-38
-0.33819067 0.51103115 -1.0272039 0 0 0 7.0523921e-38
-0.35045075 0.47953653 -1.114256 0 0 0 7.0523921e-38
-0.2858882 0.59047365 -0.082185477 0 0 0 7.0523921e-38
-0.28379202 0.59575891 -0.17885996 0 0 0 7.0523921e-38
-0.27570033 0.61616087 -0.27657521 0 0 0 7.0523921e-38
-0.25942492 0.657197 -0.37656608 0 0 0 7.0523921e-38
0.017671347 0.68344212 -0.48562157 0 0 0 7.0523921e-38
0.030108929 0.71118164 -0.58872169 0 0 0 7.0523921e-38
0.025546789 0.70100594 -0.68781799 0 0 0 7.0523921e-38
-0.30386019 0.5446496 -0.84537774 0 0 0 7.0523921e-38
-0.30433369 0.54320049 -0.94029284 0 0 0 7.0523921e-38
-0.318501 0.50748539 -1.0279582 0 0 0 7.0523921e-38
-0.32727218 0.48512125 -1.1171278 0 0 0 7.0523921e-38
-0.26405716 0.59899664 -0.082427025 0 0 0 7.0523921e-38
-0.27754545 0.56529713 -0.17800699 0 0 0 7.0523921e-38
-0.26344442 0.60052681 -0.27607033 0 0 0 7.0523921e-38
-0.24332905 0.65078354 -0.37656608 0 0 0 7.0523921e-38
0.058476925 0.73062849 -0.49076223 0 0 0 7.0523921e-38
0.057027578 0.72742319 -0.59140331 0 0 0 7.0523921e-38
0.042596579 0.69550657 -0.68805897 0 0 0 7.0523921e-38
-0.28224349 0.55305147 -0.84785503 0 0 0 7.0523921e-38
-0.29591823 0.51863766 -0.93685734 0 0 0 7.0523921e-38
-0.30433512 0.49761152 -1.0272039 0 0 0 7.0523921e-38
-0.30662405 0.49164295 -1.1199996 0 0 0 7.0523921e-38
-0.25374293 0.57113457 -0.0820949 0 0 0 7.0523921e-38
-0.25011063 0.58011389 -0.17879435 0 0 0 7.0523921e-38
-0.24487567 0.59305525 -0.27607033 0 0 0 7.0523921e-38
-0.23131037 0.62659025 -0.37533993 0 0 0 7.0523921e-38
0.053265572 0.66885185 -0.68564898 0 0 0 7.0523921e-38
-0.26458955 0.54381704 -0.84754539 0 0 0 7.0523921e-38
-0.269521 0.53137636 -0.9406364 0 0 0 7.0523921e-38
-0.27583027 0.5157814 -1.0324833 0 0 0 7.0523921e-38
-0.28111219 0.50247622 -1.1241021 0 0 0 7.0523921e-38
-0.23225498 0.57103205 -0.082215674 0 0 0 7.0523921e-38
-0.2285912 0.57999468 -0.17905679 0 0 0 7.0523921e-38
-0.23086929 0.57442188 -0.27546448 0 0 0 7.0523921e-38
-0.20660615 0.63377619 -0.37642983 0 0 0 7.0523921e-38
-0.44562781 0.68335009 -0.53546399 0 0 0 7.0523921e-38
0.066264153 0.64759731 -0.68396193 0 0 0 7.0523921e-38
-0.24622846 0.53634977 -0.84754539 0 0 0 7.0523921e-38
-0.25269675 0.52027988 -0.93994927 0 0 0 7.0523921e-38
-0.2598021 0.50290108 -1.031352 0 0 0 7.0523921e-38
-0.21993566 0.60015821 -1.147897 0 0 0 7.0523921e-38
-0.22176766 0.55159283 -0.082004324 0 0 0 7.0523921e-38
-0.21121383 0.57718086 -0.17918803 0 0 0 7.0523921e-38
-0.208179 0.58453846 -0.27637324 0 0 0 7.0523921e-38
-0.18601918 0.63826513 -0.37724727 0 0 0 7.0523921e-38
-0.41576862 0.71559381 -0.44183186 0 0 0 7.0523921e-38
-0.45045316 0.61950111 -0.52942783 0 0 0 7.0523921e-38
0.078980684 0.63295937 -0.68299794 0 0 0 7.0523921e-38
-0.22674513 0.53902912 -0.84909368 0 0 0 7.0523921e-38
-0.23252296 0.52477455 -0.94201058 0 0 0 7.0523921e-38
-0.23145771 0.5273571 -1.0377626 0 0 0 7.0523921e-38
-0.19954014 0.60447884 -1.1503586 0 0 0 7.0523921e-38
-0.18183875 0.59565353 -0.082849726 0 0 0 7.0523921e-38
-0.19965148 0.55291176 -0.17859751 0 0 0 7.0523921e-38
-0.19812155 0.55658293 -0.2752625 0 0 0 7.0523921e-38
-0.15733409 0.6544528 -0.3790184 0 0 0 7.0523921e-38
-0.42556596 0.63005257 -0.43512291 0 0 0 7.0523921e-38
-0.4270227 0.6257987 -0.53079087 0 0 0 7.0523921e-38
0.092605114 0.61344814 -0.68155193 0 0 0 7.0523921e-38
-0.20460129 0.54054213 -0.85064197 0 0 0 7.0523921e-38
-0.20892596 0.5299201 -0.94441539 0 0 0 7.0523921e-38
-0.20937896 0.52883339 -1.0396481 0 0 0 7.0523921e-38
-0.18321657 0.59135246 -1.1491278 0 0 0 7.0523921e-38
-0.14078331 0.64133167 -0.083725326 0 0 0 7.0523921e-38
-0.16884613 0.57468319 -0.17964731 0 0 0 7.0523921e-38
-0.16886234 0.57464504 -0.27667618 0 0 0 7.0523921e-38
-0.1385684 0.64659166 -0.3790184 0 0 0 7.0523921e-38
-0.39996481 0.6418705 -0.43672028 0 0 0 7.0523921e-38
-0.40213883 0.63572598 -0.53254324 0 0 0 7.0523921e-38
0.10951877 0.6010828 -0.68106991 0 0 0 7.0523921e-38
-0.18855309 0.52739191 -0.84971303 0 0 0 7.0523921e-38
-0.19138098 0.52043343 -0.94407189 0 0 0 7.0523921e-38
-0.18802404 0.52840471 -1.0411564 0 0 0 7.0523921e-38
-0.16772103 0.57637024 -1.1474868 0 0 0 7.0523921e-38
-0.41221046 0.60553741 -1.2290274 0 0 0 7.0523921e-38
-0.1256578 0.63237953 -0.18194376 0 0 0 7.0523921e-38
-0.11080503 0.66734743 -0.38106197 0 0 0 7.0523921e-38
-0.3888036 0.62282753 -0.43560213 0 0 0 7.0523921e-38
-0.38680685 0.62789679 -0.53234857 0 0 0 7.0523921e-38
0.12115812 0.58455324 -0.67986494 0 0 0 7.0523921e-38
-0.1597321 0.55167294 -0.85497725 0 0 0 7.0523921e-38
-0.16492987 0.53919506 -0.94888157 0 0 0 7.0523921e-38
-0.16158152 0.54707623 -1.0464357 0 0 0 7.0523921e-38
-0.14881778 0.57687616 -1.1491278 0 0 0 7.0523921e-38
-0.40652728 0.57220411 -1.222384 0 0 0 7.0523921e-38
-0.074682236 0.69965649 -0.38405925 0 0 0 7.0523921e-38
-0.37085724 0.61395025 -0.43544239 0 0 0 7.0523921e-38
-0.36461723 0.63018608 -0.5333221 0 0 0 7.0523921e-38
0.14052796 0.57746029 -0.68010592 0 0 0 7.0523921e-38
-0.14368081 0.53837442 -0.85404825 0 0 0 7.0523921e-38
-0.14114714 0.54403639 -0.95128638 0 0 0 7.0523921e-38
-0.13623786 0.55547619 -1.0498296 0 0 0 7.0523921e-38
-0.12956452 0.57078314 -1.149538 0 0 0 7.0523921e-38
-0.40186334 0.52877331 -1.2135261 0 0 0 7.0523921e-38
-0.30346465 0.73446465 -0.3473852 0 0 0 7.0523921e-38
-0.044641733 0.71712303 -0.3859666 0 0 0 7.0523921e-38
-0.34298456 0.63108063 -0.43751895 0 0 0 7.0523921e-38
-0.33669901 0.64725542 -0.53585339 0 0 0 7.0523921e-38
-0.11276698 0.55947018 -0.85900289 0 0 0 7.0523921e-38
-0.11416602 0.55600214 -0.95506543 0 0 0 7.0523921e-38
-0.11080408 0.56375694 -1.0532235 0 0 0 7.0523921e-38
-0.10876989 0.56820869 -1.1507689 0 0 0 7.0523921e-38
-0.38285983 0.5236311 -1.213969 0 0 0 7.0523921e-38
-0.29143739 0.71701574 -0.34663841 0 0 0 7.0523921e-38
-0.024362326 0.71917629 -0.38664779 0 0 0 7.0523921e-38
-0.34132421 0.58773088 -0.43432423 0 0 0 7.0523921e-38
-0.337116 0.59837341 -0.53137499 0 0 0 7.0523921e-38
0.14726424 0.50459766 -0.5744884 0 0 0 7.0523921e-38
0.15646243 0.52334785 -0.67504489 0 0 0 7.0523921e-38
-0.082731009 0.5851841 -0.86457682 0 0 0 7.0523921e-38
-0.087338209 0.57440662 -0.95987511 0 0 0 7.0523921e-38
-0.091068268 0.56587553 -1.0551089 0 0 0 7.0523921e-38
-0.090601683 0.56670332 -1.1519996 0 0 0 7.0523921e-38
-0.37280297 0.5030508 -1.2104259 0 0 0 7.0523921e-38
-0.27570462 0.70154667 -0.24777438 0 0 0 7.0523921e-38
-0.27969575 0.6910491 -0.34539375 0 0 0 7.0523921e-38
0.014789343 0.75646067 -0.39005378 0 0 0 7.0523921e-38
-0.30613816 0.62326288 -0.43799818 0 0 0 7.0523921e-38
-0.31204391 0.60786152 -0.53312743 0 0 0 7.0523921e-38
0.16371346 0.49205542 -0.57407582 0 0 0 7.0523921e-38
0.16857886 0.50188255 -0.6733579 0 0 0 7.0523921e-38
-0.063421488 0.57885742 -0.86488646 0 0 0 7.0523921e-38
-0.045783997 0.61855745 -0.96983802 0 0 0 7.0523921e-38
-0.066279888 0.57214594 -1.0581257 0 0 0 7.0523921e-38
-0.048433781 0.61231709 -1.1643072 0 0 0 7.0523921e-38
-0.35388148 0.49779749 -1.2108688 0 0 0 7.0523921e-38
-0.36198986 0.47651482 -1.2987278 0 0 0 7.0523921e-38
-0.27215624 0.65508556 -0.24590136 0 0 0 7.0523921e-38
-0.26445627 0.67435169 -0.34477141 0 0 0 7.0523921e-38
-0.29918671 0.58627319 -0.43544239 0 0 0 7.0523921e-38
-0.30148005 0.58019876 -0.53098553 0 0 0 7.0523921e-38
0.16587639 0.45098686 -0.57036281 0 0 0 7.0523921e-38
0.17435908 0.46796322 -0.66998386 0 0 0 7.0523921e-38
-0.3328253 0.49791479 -1.2126404 0 0 0 7.0523921e-38
-0.26493168 0.62643528 -0.24483106 0 0 0 7.0523921e-38
-0.24756837 0.66980886 -0.34489587 0 0 0 7.0523921e-38
-0.27078223 0.61147499 -0.43815792 0 0 0 7.0523921e-38
-0.28709793 0.57021904 -0.53059614 0 0 0 7.0523921e-38
-0.31650805 0.49354506 -1.2130833 0 0 0 7.0523921e-38
-0.25148654 0.60599279 -0.24420671 0 0 0 7.0523921e-38
-0.22949052 0.66042614 -0.34477141 0 0 0 7.0523921e-38
-0.24622202 0.61882687 -0.43943581 0 0 0 7.0523921e-38
-0.2649262 0.57206774 -0.53156972 0 0 0 7.0523921e-38
0.22725129 0.48911476 -0.57675749 0 0 0 7.0523921e-38
-0.28085542 0.52969217 -1.2237127 0 0 0 7.0523921e-38
-0.24117327 0.57811689 -0.2432256 0 0 0 7.0523921e-38
-0.2182188 0.6343379 -0.34352675 0 0 0 7.0523921e-38
-0.22683549 0.61313868 -0.43959555 0 0 0 7.0523921e-38
-0.24496245 0.56828976 -0.53195912 0 0 0 7.0523921e-38
0.21635985 0.42320108 -0.57015651 0 0 0 7.0523921e-38
-0.20376396 0.66681623 -1.2591441 0 0 0 7.0523921e-38
-0.22153544 0.5808897 -0.24367157 0 0 0 7.0523921e-38
-0.19386315 0.64811039 -0.34489587 0 0 0 7.0523921e-38
-0.20558286 0.61953497 -0.4407137 0 0 0 7.0523921e-38
-0.22234797 0.57840633 -0.53371155 0 0 0 7.0523921e-38
0.33067513 0.60677433 -0.69360203 0 0 0 7.0523921e-38
-0.19059992 0.65301085 -1.2573725 0 0 0 7.0523921e-38
-0.2083931 0.56034374 -0.24304722 0 0 0 7.0523921e-38
-0.18352675 0.62009907 -0.34352675 0 0 0 7.0523921e-38
-0.18465495 0.61737633 -0.4411929 0 0 0 7.0523921e-38
-0.19623971 0.58917236 -0.53565872 0 0 0 7.0523921e-38
0.36762285 0.63233376 -0.69842201 0 0 0 7.0523921e-38
-0.16885114 0.65247774 -1.2591441 0 0 0 7.0523921e-38
-0.17994046 0.57662916 -0.24420671 0 0 0 7.0523921e-38
-0.14715457 0.65468216 -0.34638947 0 0 0 7.0523921e-38
-0.16833496 0.6040988 -0.4407137 0 0 0 7.0523921e-38
-0.17617536 0.5851264 -0.53604811 0 0 0 7.0523921e-38
0.39277506 0.63484859 -0.70010906 0 0 0 7.0523921e-38
-0.15988994 0.62127399 -1.2533865 0 0 0 7.0523921e-38
-0.15632367 0.58837223 -0.24509864 0 0 0 7.0523921e-38
-0.1116488 0.69388628 -0.34950113 0 0 0 7.0523921e-38
-0.13999414 0.62678337 -0.44326949 0 0 0 7.0523921e-38
-0.15410972 0.59312105 -0.53760582 0 0 0 7.0523921e-38
-0.13783312 0.62892008 -1.2569296 0 0 0 7.0523921e-38
-0.13231087 0.59337187 -0.24572296 0 0 0 7.0523921e-38
-0.084904194 0.70421696 -0.3507458 0 0 0 7.0523921e-38
-0.11976504 0.62252665 -0.44358897 0 0 0 7.0523921e-38
-0.13322496 0.59074068 -0.53819001 0 0 0 7.0523921e-38
-0.12222457 0.6138134 -1.2551581 0 0 0 7.0523921e-38
-0.038299561 0.76024723 -0.35510209 0 0 0 7.0523921e-38
-0.088489294 0.64381981 -0.44614476 0 0 0 7.0523921e-38
0.3008492 -0.12851286 -0.4642922 0 0 0 7.0523921e-38
-0.1044488 0.60655403 -0.54072124 0 0 0 7.0523921e-38
-0.10283566 0.60761452 -1.2556009 0 0 0 7.0523921e-38
-0.32976532 0.64477634 -0.1473697 0 0 0 7.0523921e-38
-0.071641445 0.6386981 -0.44630447 0 0 0 7.0523921e-38
0.28674865 -0.18275738 -0.45935485 0 0 0 7.0523921e-38
-0.090100288 0.59600353 -0.54033184 0 0 0 7.0523921e-38
-0.084562063 0.60607529 -1.2569296 0 0 0 7.0523921e-38
-0.31681991 0.62263632 -0.14693943 0 0 0 7.0523921e-38
0.30829906 -0.18258858 -0.37165484 0 0 0 7.0523921e-38
-0.035297632 0.67068052 -0.4498187 0 0 0 7.0523921e-38
0.30140972 -0.19394302 -0.45917201 0 0 0 7.0523921e-38
-0.045935631 0.64621544 -0.54656267 0 0 0 7.0523921e-38
-0.058912516 0.61401749 -1.2609156 0 0 0 7.0523921e-38
-0.30401027 0.60047007 -0.14650916 0 0 0 7.0523921e-38
0.31046247 -0.21426916 -0.36973298 0 0 0 7.0523921e-38
0.00050163269 0.70064211 -0.45317316 0 0 0 7.0523921e-38
0.31914163 -0.2000823 -0.45953771 0 0 0 7.0523921e-38
0.0083117485 0.71800566 -0.55513012 0 0 0 7.0523921e-38
-0.037131071 0.61292696 -1.2626872 0 0 0 7.0523921e-38
-0.27778959 0.62022209 -0.14726213 0 0 0 7.0523921e-38
0.2179656 -0.39443874 -0.27019802 0 0 0 7.0523921e-38
0.32277155 -0.22416639 -0.36958516 0 0 0 7.0523921e-38
0.025687218 0.7134304 -0.45493028 0 0 0 7.0523921e-38
0.34716678 -0.18456936 -0.46209782 0 0 0 7.0523921e-38
0.031099796 0.72528696 -0.55668783 0 0 0 7.0523921e-38
-0.24215341 0.65527678 -0.050675273 0 0 0 7.0523921e-38
-0.2836585 0.55154848 -0.14548725 0 0 0 7.0523921e-38
0.20865035 -0.44268084 -0.26760536 0 0 0 7.0523921e-38
0.21518087 -0.43201113 -0.35228857 0 0 0 7.0523921e-38
0.33973455 -0.23149395 -0.45807481 0 0 0 7.0523921e-38
0.059137821 0.73668861 -0.55882967 0 0 0 7.0523921e-38
-0.23504925 0.62655592 -0.050454944 0 0 0 7.0523921e-38
-0.26340318 0.55633497 -0.14580995 0 0 0 7.0523921e-38
0.23824286 -0.42345619 -0.18483949 0 0 0 7.0523921e-38
0.21599364 -0.45902348 -0.26704177 0 0 0 7.0523921e-38
0.22679472 -0.4416008 -0.35214072 0 0 0 7.0523921e-38
0.21678638 -0.45760059 -0.43448532 0 0 0 7.0523921e-38
-0.21260715 0.6282382 -0.050546747 0 0 0 7.0523921e-38
-0.23668742 0.56922531 -0.14640158 0 0 0 7.0523921e-38
0.23493195 -0.46149683 -0.18352363 0 0 0 7.0523921e-38
0.22428465 -0.47837925 -0.26636541 0 0 0 7.0523921e-38
0.23834872 -0.45592356 -0.35169724 0 0 0 7.0523921e-38
0.20810151 -0.5038867 -0.43046233 0 0 0 7.0523921e-38
-0.17792749 0.65940714 -0.050932322 0 0 0 7.0523921e-38
-0.21213675 0.57644224 -0.14683186 0 0 0 7.0523921e-38
0.23995447 -0.48596644 -0.182827 0 0 0 7.0523921e-38
0.23246765 -0.49774194 -0.26568907 0 0 0 7.0523921e-38
0.24769163 -0.47364306 -0.35095805 0 0 0 7.0523921e-38
0.2130022 -0.52820587 -0.42881653 0 0 0 7.0523921e-38
-0.18673635 0.58539248 -0.14731592 0 0 0 7.0523921e-38
0.23836112 -0.52051425 -0.18166594 0 0 0 7.0523921e-38
0.25239539 -0.49861836 -0.2662527 0 0 0 7.0523921e-38
0.26770139 -0.47458506 -0.35169724 0 0 0 7.0523921e-38
0.23925257 -0.51897168 -0.43082803 0 0 0 7.0523921e-38
-0.16621852 0.58980989 -0.14763862 0 0 0 7.0523921e-38
0.25725698 -0.51841044 -0.18213037 0 0 0 7.0523921e-38
0.24428439 -0.5385108 -0.26411095 0 0 0 7.0523921e-38
0.27699423 -0.48767614 -0.35125372 0 0 0 7.0523921e-38
0.23761153 -0.54869986 -0.42845082 0 0 0 7.0523921e-38
0.27063131 -0.52945828 -0.18205296 0 0 0 7.0523921e-38
0.26629758 -0.53611946 -0.26490003 0 0 0 7.0523921e-38
0.29483414 -0.49210572 -0.35169724 0 0 0 7.0523921e-38
0.22264051 -0.60307479 -0.42351347 0 0 0 7.0523921e-38
0.28847218 -0.52917194 -0.18243998 0 0 0 7.0523921e-38
0.28192449 -0.53916717 -0.2652382 0 0 0 7.0523921e-38
0.30840945 -0.49858594 -0.35184506 0 0 0 7.0523921e-38
0.22822666 -0.62099218 -0.4224163 0 0 0 7.0523921e-38
0.28858066 -0.56033945 -0.18143374 0 0 0 7.0523921e-38
0.29081082 -0.55696177 -0.26467457 0 0 0 7.0523921e-38
0.30536151 -0.53477693 -0.34947973 0 0 0 7.0523921e-38
0.31078577 -0.12446451 -0.43558574 0 0 0 7.0523921e-38
0.22585368 -0.65518761 -0.41967332 0 0 0 7.0523921e-38
0.3483808 -0.061722279 -0.53281993 0 0 0 7.0523921e-38
0.32171583 -0.5415442 -0.1827496 0 0 0 7.0523921e-38
0.31177211 -0.55648375 -0.26535091 0 0 0 7.0523921e-38
0.32971144 -0.52938247 -0.35081023 0 0 0 7.0523921e-38
0.31020617 -0.1613245 -0.43284404 0 0 0 7.0523921e-38
0.25305891 -0.64454889 -0.4218677 0 0 0 7.0523921e-38
0.32439709 -0.13783693 -0.52477503 0 0 0 7.0523921e-38
0.32736731 -0.55973816 -0.18228517 0 0 0 7.0523921e-38
0.3240521 -0.56468511 -0.26535091 0 0 0 7.0523921e-38
0.33652496 -0.54592514 -0.35007104 0 0 0 7.0523921e-38
0.30922651 -0.19335461 -0.43044508 0 0 0 7.0523921e-38
0.26062775 -0.6591835 -0.42113623 0 0 0 7.0523921e-38
0.33385611 -0.15287781 -0.52394992 0 0 0 7.0523921e-38
0.18890572 -0.3910923 -0.66389924 0 0 0 7.0523921e-38
0.35734057 -0.54618239 -0.18336882 0 0 0 7.0523921e-38
0.35622954 -0.54782724 -0.26715448 0 0 0 7.0523921e-38
0.36428452 -0.53575444 -0.35184506 0 0 0 7.0523921e-38
0.33530211 -0.1859355 -0.43215865 0 0 0 7.0523921e-38
0.28237939 -0.65701485 -0.4224163 0 0 0 7.0523921e-38
0.34861922 -0.16422939 -0.52374363 0 0 0 7.0523921e-38
0.17419362 -0.4485321 -0.57261932 0 0 0 7.0523921e-38
0.15100503 -0.48632789 -0.64984989 0 0 0 7.0523921e-38
0.39552116 -0.52078843 -0.35406259 0 0 0 7.0523921e-38
0.34154987 -0.21084833 -0.43061644 0 0 0 7.0523921e-38
0.31090593 -0.64507651 -0.42479354 0 0 0 7.0523921e-38
0.34449697 -0.20608377 -0.51982433 0 0 0 7.0523921e-38
0.15131378 -0.5183866 -0.56394327 0 0 0 7.0523921e-38
0.15829277 -0.50710416 -0.64792156 0 0 0 7.0523921e-38
0.36966586 -0.19546652 -0.43301541 0 0 0 7.0523921e-38
0.33416748 -0.63684702 -0.42662218 0 0 0 7.0523921e-38
0.23796916 -0.40688133 -0.49630848 0 0 0 7.0523921e-38
0.16686368 -0.52102852 -0.56466627 0 0 0 7.0523921e-38
0.16549182 -0.52323079 -0.64654422 0 0 0 7.0523921e-38
0.38849235 -0.20019102 -0.43352947 0 0 0 7.0523921e-38
0.3776288 -0.60389614 -0.43137664 0 0 0 7.0523921e-38
0.19994187 -0.50041699 -0.48599449 0 0 0 7.0523921e-38
0.1718154 -0.54520226 -0.56249726 0 0 0 7.0523921e-38
0.17993903 -0.53226709 -0.64654422 0 0 0 7.0523921e-38
0.36681366 -0.26897144 -0.42753205 0 0 0 7.0523921e-38
0.4429884 -0.54015732 -0.43960553 0 0 0 7.0523921e-38
0.19318867 -0.54319501 -0.48186889 0 0 0 7.0523921e-38
0.17237473 -0.57606864 -0.5593642 0 0 0 7.0523921e-38
0.19117379 -0.54637742 -0.64571774 0 0 0 7.0523921e-38
0.23645139 -0.50249505 -0.4045704 0 0 0 7.0523921e-38
0.19374728 -0.56947565 -0.47959983 0 0 0 7.0523921e-38
0.17605519 -0.59722519 -0.55743623 0 0 0 7.0523921e-38
0.17260313 -0.60263991 -0.63772893 0 0 0 7.0523921e-38
0.23912287 -0.53023052 -0.40268549 0 0 0 7.0523921e-38
0.18973947 -0.60706449 -0.47609308 0 0 0 7.0523921e-38
0.18701077 -0.61131024 -0.55671322 0 0 0 7.0523921e-38
0.17176437 -0.6350317 -0.63387227 0 0 0 7.0523921e-38
0.26004505 -0.52950287 -0.40371361 0 0 0 7.0523921e-38
0.19738889 -0.6262064 -0.47485539 0 0 0 7.0523921e-38
0.18817973 -0.64041996 -0.55382121 0 0 0 7.0523921e-38
0.19118738 -0.63577771 -0.63524961 0 0 0 7.0523921e-38
-0.28809762 -0.68799496 -1.1962749 0 0 0 7.0523921e-38
0.27676511 -0.53086662 -0.40439904 0 0 0 7.0523921e-38
0.20292878 -0.64404488 -0.47361773 0 0 0 7.0523921e-38
0.19043326 -0.66319847 -0.55165219 0 0 0 7.0523921e-38
0.19131303 -0.66185021 -0.63221937 0 0 0 7.0523921e-38
-0.26896763 -0.68071938 -1.2005819 0 0 0 7.0523921e-38
0.26600146 -0.57860327 -0.40045786 0 0 0 7.0523921e-38
0.21474671 -0.65654182 -0.47320515 0 0 0 7.0523921e-38
0.2043674 -0.67232513 -0.55165219 0 0 0 7.0523921e-38
0.19980955 -0.67925572 -0.63084203 0 0 0 7.0523921e-38
0.14432812 -0.38401127 -0.91332161 0 0 0 7.0523921e-38
-0.26423216 -0.70511889 -1.1951982 0 0 0 7.0523921e-38
0.27914381 -0.58966851 -0.4002865 0 0 0 7.0523921e-38
0.22870493 -0.66575789 -0.47320515 0 0 0 7.0523921e-38
0.21278286 -0.68977737 -0.55044717 0 0 0 7.0523921e-38
0.21259022 -0.69006801 -0.63056654 0 0 0 7.0523921e-38
0.14638972 -0.41425037 -0.74164093 0 0 0 7.0523921e-38
0.16390944 -0.38528395 -0.83104432 0 0 0 7.0523921e-38
0.12385178 -0.45187998 -0.9001233 0 0 0 7.0523921e-38
-0.23940921 -0.69227147 -1.2016587 0 0 0 7.0523921e-38
0.28651476 -0.21128988 -0.33991763 0 0 0 7.0523921e-38
0.27583337 -0.6209712 -0.39788753 0 0 0 7.0523921e-38
0.23622489 -0.68031669 -0.47238004 0 0 0 7.0523921e-38
0.22023582 -0.70427299 -0.54948318 0 0 0 7.0523921e-38
0.22005224 -0.70454788 -0.62946463 0 0 0 7.0523921e-38
0.15399885 -0.43038321 -0.74009258 0 0 0 7.0523921e-38
0.14099813 -0.452003 -0.81902015 0 0 0 7.0523921e-38
0.11305499 -0.49812984 -0.89145017 0 0 0 7.0523921e-38
-0.23773098 -0.71732426 -1.1957365 0 0 0 7.0523921e-38
0.29378414 -0.23439503 -0.33882773 0 0 0 7.0523921e-38
0.30326867 -0.61057115 -0.3999438 0 0 0 7.0523921e-38
0.26231027 -0.67145467 -0.47464913 0 0 0 7.0523921e-38
0.24288487 -0.70032978 -0.55141121 0 0 0 7.0523921e-38
0.24489164 -0.69734693 -0.63221937 0 0 0 7.0523921e-38
0.14921784 -0.47141623 -0.734209 0 0 0 7.0523921e-38
0.14235497 -0.48280859 -0.81455398 0 0 0 7.0523921e-38
0.10916567 -0.53714561 -0.88466245 0 0 0 7.0523921e-38
0.16537619 -0.44527721 -0.98830736 0 0 0 7.0523921e-38
-0.20908928 -0.69790554 -1.2043506 0 0 0 7.0523921e-38
0.20100212 -0.41975594 -0.24042554 0 0 0 7.0523921e-38
0.20257163 -0.41720724 -0.32493129 0 0 0 7.0523921e-38
0.3118031 -0.62835813 -0.39908701 0 0 0 7.0523921e-38
0.26839828 -0.69237041 -0.47320515 0 0 0 7.0523921e-38
0.2522254 -0.71622181 -0.55044717 0 0 0 7.0523921e-38
0.24313593 -0.72962689 -0.62836272 0 0 0 7.0523921e-38
0.14831352 -0.50562978 -0.72956407 0 0 0 7.0523921e-38
0.15385103 -0.49679351 -0.81352335 0 0 0 7.0523921e-38
0.1235621 -0.54597521 -0.88466245 0 0 0 7.0523921e-38
0.13802242 -0.52264929 -0.97148687 0 0 0 7.0523921e-38
0.20213294 -0.44628334 -0.23931479 0 0 0 7.0523921e-38
0.21108365 -0.43184948 -0.32438633 0 0 0 7.0523921e-38
0.34295654 -0.60858202 -0.40200007 0 0 0 7.0523921e-38
0.28025174 -0.70043516 -0.47320515 0 0 0 7.0523921e-38
0.2572875 -0.73407412 -0.54900116 0 0 0 7.0523921e-38
0.27944374 -0.70161867 -0.6344232 0 0 0 7.0523921e-38
0.15658879 -0.52003479 -0.72832543 0 0 0 7.0523921e-38
0.15074253 -0.52961516 -0.80837011 0 0 0 7.0523921e-38
0.11724234 -0.5836308 -0.87787473 0 0 0 7.0523921e-38
0.13183856 -0.56024814 -0.96410221 0 0 0 7.0523921e-38
0.21474409 -0.4588418 -0.23911284 0 0 0 7.0523921e-38
0.21634531 -0.45628071 -0.32316017 0 0 0 7.0523921e-38
0.37290287 -0.59528589 -0.40439904 0 0 0 7.0523921e-38
0.30306983 -0.69677997 -0.47485539 0 0 0 7.0523921e-38
0.31935406 -0.67311239 -0.5593642 0 0 0 7.0523921e-38
0.33141398 -0.65558505 -0.64378941 0 0 0 7.0523921e-38
0.16790509 -0.53406477 -0.72739643 0 0 0 7.0523921e-38
0.15472078 -0.5553031 -0.80493462 0 0 0 7.0523921e-38
0.13459229 -0.5874939 -0.87900603 0 0 0 7.0523921e-38
0.14407468 -0.5724802 -0.96328169 0 0 0 7.0523921e-38
0.23768353 -0.45495987 -0.15576433 0 0 0 7.0523921e-38
0.21451545 -0.49171615 -0.23769917 0 0 0 7.0523921e-38
0.23529339 -0.45875216 -0.32370514 0 0 0 7.0523921e-38
0.41206598 -0.56905818 -0.40816885 0 0 0 7.0523921e-38
0.32368159 -0.69651103 -0.47609308 0 0 0 7.0523921e-38
0.34117079 -0.67129111 -0.56105125 0 0 0 7.0523921e-38
0.34876132 -0.66034508 -0.64461583 0 0 0 7.0523921e-38
0.1738832 -0.55648184 -0.72491914 0 0 0 7.0523921e-38
0.16694903 -0.56763315 -0.80424756 0 0 0 7.0523921e-38
0.13832998 -0.61303186 -0.87523508 0 0 0 7.0523921e-38
0.15207815 -0.59137321 -0.9608202 0 0 0 7.0523921e-38
0.24064231 -0.47811842 -0.15517381 0 0 0 7.0523921e-38
0.23128104 -0.49286675 -0.23810308 0 0 0 7.0523921e-38
0.24146509 -0.47682166 -0.32288769 0 0 0 7.0523921e-38
0.35032558 -0.68354416 -0.4787747 0 0 0 7.0523921e-38
0.34854388 -0.68609619 -0.5600872 0 0 0 7.0523921e-38
0.39019775 -0.62643123 -0.65177828 0 0 0 7.0523921e-38
0.18298745 -0.56925488 -0.72399014 0 0 0 7.0523921e-38
0.16652369 -0.59534097 -0.80012494 0 0 0 7.0523921e-38
0.14727545 -0.62566304 -0.87410384 0 0 0 7.0523921e-38
0.16005301 -0.60568333 -0.95917916 0 0 0 7.0523921e-38
0.23909354 -0.51268649 -0.15418962 0 0 0 7.0523921e-38
0.22861385 -0.52906442 -0.23648745 0 0 0 7.0523921e-38
0.25500655 -0.48781753 -0.32275146 0 0 0 7.0523921e-38
0.44088078 -0.5842495 -0.49259543 0 0 0 7.0523921e-38
0.41608953 -0.6194849 -0.57141429 0 0 0 7.0523921e-38
0.44644141 -0.5763464 -0.66197091 0 0 0 7.0523921e-38
0.2025907 -0.57003355 -0.72553849 0 0 0 7.0523921e-38
0.18176842 -0.60272098 -0.8004685 0 0 0 7.0523921e-38
0.16664076 -0.62635994 -0.87598932 0 0 0 7.0523921e-38
0.17314291 -0.61634779 -0.9587689 0 0 0 7.0523921e-38
0.25574589 -0.51863313 -0.15432085 0 0 0 7.0523921e-38
0.25061822 -0.52658224 -0.23719428 0 0 0 7.0523921e-38
0.2749908 -0.48879838 -0.32343265 0 0 0 7.0523921e-38
0.20294166 -0.60079026 -0.72151285 0 0 0 7.0523921e-38
0.18524313 -0.62837291 -0.79703301 0 0 0 7.0523921e-38
0.17858052 -0.63870096 -0.87523508 0 0 0 7.0523921e-38
0.12251663 -0.72574854 -0.93374324 0 0 0 7.0523921e-38
0.26705647 -0.52833509 -0.15425524 0 0 0 7.0523921e-38
0.25646472 -0.54464269 -0.23658843 0 0 0 7.0523921e-38
0.28204942 -0.50525165 -0.32275146 0 0 0 7.0523921e-38
0.21508312 -0.60864973 -0.72151285 0 0 0 7.0523921e-38
0.17797899 -0.66591763 -0.79084915 0 0 0 7.0523921e-38
0.14459538 -0.71730995 -0.85902005 0 0 0 7.0523921e-38
0.13533211 -0.73171306 -0.9341535 0 0 0 7.0523921e-38
0.27053475 -0.55446744 -0.15359911 0 0 0 7.0523921e-38
0.26973867 -0.55568337 -0.23648745 0 0 0 7.0523921e-38
0.30202675 -0.5063684 -0.32343265 0 0 0 7.0523921e-38
0.19566321 -0.66911173 -0.71191335 0 0 0 7.0523921e-38
0.16168165 -0.72115207 -0.78122979 0 0 0 7.0523921e-38
0.1454196 -0.7459867 -0.85449493 0 0 0 7.0523921e-38
0.14258122 -0.75046325 -0.931692 0 0 0 7.0523921e-38
0.30358481 -0.53552675 -0.15471452 0 0 0 7.0523921e-38
0.28956747 -0.55676603 -0.23699233 0 0 0 7.0523921e-38
0.32312942 -0.50591326 -0.3242501 0 0 0 7.0523921e-38
0.26546884 -0.19671202 -0.3990224 0 0 0 7.0523921e-38
0.30551887 -0.12999105 -0.49476871 0 0 0 7.0523921e-38
0.17909932 -0.72443151 -0.70324278 0 0 0 7.0523921e-38
0.15912271 -0.75483871 -0.77607656 0 0 0 7.0523921e-38
0.14606667 -0.77461886 -0.8499698 0 0 0 7.0523921e-38
0.16158748 -0.75124574 -0.93374324 0 0 0 7.0523921e-38
0.32256866 -0.53371358 -0.1551082 0 0 0 7.0523921e-38
0.30626869 -0.55824351 -0.23739624 0 0 0 7.0523921e-38
0.3289423 -0.524122 -0.32343265 0 0 0 7.0523921e-38
0.29020357 -0.18598986 -0.40077952 0 0 0 7.0523921e-38
0.31811118 -0.1398797 -0.49457401 0 0 0 7.0523921e-38
0.1908524 -0.73221564 -0.70324278 0 0 0 7.0523921e-38
0.17732358 -0.75271416 -0.77813786 0 0 0 7.0523921e-38
0.17614365 -0.75448966 -0.8563804 0 0 0 7.0523921e-38
0.24909973 -0.64485574 -0.96246123 0 0 0 7.0523921e-38
0.35143757 -0.52173519 -0.15596116 0 0 0 7.0523921e-38
0.32058644 -0.56779552 -0.23739624 0 0 0 7.0523921e-38
0.3511579 -0.52215266 -0.32438633 0 0 0 7.0523921e-38
0.31106448 -0.18696833 -0.40157819 0 0 0 7.0523921e-38
0.33499646 -0.14777708 -0.49476871 0 0 0 7.0523921e-38
0.20453334 -0.7413435 -0.70324278 0 0 0 7.0523921e-38
0.19750881 -0.75197053 -0.78019911 0 0 0 7.0523921e-38
0.19083619 -0.76193166 -0.85675752 0 0 0 7.0523921e-38
0.25002718 -0.67371321 -0.95753813 0 0 0 7.0523921e-38
0.36365199 -0.53476644 -0.15582994 0 0 0 7.0523921e-38
0.34269285 -0.56581163 -0.23810308 0 0 0 7.0523921e-38
0.29561639 -0.24731493 -0.30880067 0 0 0 7.0523921e-38
0.3700738 -0.52525449 -0.32493129 0 0 0 7.0523921e-38
0.32465911 -0.19993973 -0.40125871 0 0 0 7.0523921e-38
0.34665704 -0.1642251 -0.49398986 0 0 0 7.0523921e-38
0.22149777 -0.74560881 -0.70417178 0 0 0 7.0523921e-38
0.2133224 -0.75785685 -0.78088623 0 0 0 7.0523921e-38
0.26815581 -0.67664599 -0.87862897 0 0 0 7.0523921e-38
0.2814486 -0.65710187 -0.96410221 0 0 0 7.0523921e-38
0.21344447 -0.41003132 -0.29747424 0 0 0 7.0523921e-38
0.39030337 -0.52208757 -0.32588497 0 0 0 7.0523921e-38
0.33910656 -0.20648766 -0.40141845 0 0 0 7.0523921e-38
0.34552979 -0.19625044 -0.49126387 0 0 0 7.0523921e-38
0.24540281 -0.73555064 -0.70757806 0 0 0 7.0523921e-38
0.31136775 -0.63865209 -0.80768305 0 0 0 7.0523921e-38
0.2911005 -0.66846633 -0.88239986 0 0 0 7.0523921e-38
0.29671431 -0.66035128 -0.96533298 0 0 0 7.0523921e-38
0.17319798 -0.47709203 -1.0655999 0 0 0 7.0523921e-38
0.21372581 -0.44251204 -0.21174096 0 0 0 7.0523921e-38
0.21670294 -0.43788528 -0.29610512 0 0 0 7.0523921e-38
0.36840892 -0.19415951 -0.40349504 0 0 0 7.0523921e-38
0.30226851 -0.30058098 -0.48035988 0 0 0 7.0523921e-38
0.31044245 -0.66989779 -0.7218225 0 0 0 7.0523921e-38
0.30423188 -0.67910433 -0.80115563 0 0 0 7.0523921e-38
0.3138957 -0.66499972 -0.88541663 0 0 0 7.0523921e-38
0.31287074 -0.66663814 -0.9661535 0 0 0 7.0523921e-38
0.13626504 -0.56893563 -1.0434554 0 0 0 7.0523921e-38
0.13820839 -0.56611848 -1.1248038 0 0 0 7.0523921e-38
0.22209644 -0.46187973 -0.21120581 0 0 0 7.0523921e-38
0.22191334 -0.462327 -0.29498494 0 0 0 7.0523921e-38
0.25053906 -0.41671133 -0.38336819 0 0 0 7.0523921e-38
0.21807194 -0.46860313 -0.46205673 0 0 0 7.0523921e-38
0.34792829 -0.64532042 -0.72832543 0 0 0 7.0523921e-38
0.36512899 -0.62055445 -0.81558466 0 0 0 7.0523921e-38
0.33786702 -0.66003299 -0.88881046 0 0 0 7.0523921e-38
0.33791447 -0.66010642 -0.97025609 0 0 0 7.0523921e-38
0.15676713 -0.56795382 -1.0461127 0 0 0 7.0523921e-38
0.14630032 -0.58492637 -1.1219525 0 0 0 7.0523921e-38
0.14975095 -0.57988286 -1.2037205 0 0 0 7.0523921e-38
0.22400093 -0.48669076 -0.21031389 0 0 0 7.0523921e-38
0.23022437 -0.47699642 -0.29448706 0 0 0 7.0523921e-38
0.24941373 -0.44663 -0.38129163 0 0 0 7.0523921e-38
0.20936155 -0.51016402 -0.45816246 0 0 0 7.0523921e-38
0.3723352 -0.63578892 -0.73173171 0 0 0 7.0523921e-38
0.42219377 -0.56421328 -0.82932657 0 0 0 7.0523921e-38
0.37112355 -0.63767457 -0.89597529 0 0 0 7.0523921e-38
0.35992551 -0.6539247 -0.97394836 0 0 0 7.0523921e-38
0.15025187 -0.60534167 -1.0381407 0 0 0 7.0523921e-38
0.14499497 -0.61395454 -1.1157749 0 0 0 7.0523921e-38
0.15161848 -0.6039269 -1.1986501 0 0 0 7.0523921e-38
0.16368222 -0.58514929 -1.2845688 0 0 0 7.0523921e-38
0.24609613 -0.48414588 -0.21093823 0 0 0 7.0523921e-38
0.24913049 -0.47953629 -0.29498494 0 0 0 7.0523921e-38
0.26306987 -0.45765591 -0.38113189 0 0 0 7.0523921e-38
0.20674372 -0.54622126 -0.45504701 0 0 0 7.0523921e-38
0.42831802 -0.58570814 -0.74318922 0 0 0 7.0523921e-38
0.43875027 -0.57096291 -0.83001369 0 0 0 7.0523921e-38
0.41107225 -0.61046648 -0.90464842 0 0 0 7.0523921e-38
0.16859126 -0.60774279 -1.0399122 0 0 0 7.0523921e-38
0.15702128 -0.62619162 -1.1148245 0 0 0 7.0523921e-38
0.16577005 -0.61291194 -1.1986501 0 0 0 7.0523921e-38
0.1747961 -0.59905124 -1.2829537 0 0 0 7.0523921e-38
0.24665046 -0.51533318 -0.20977874 0 0 0 7.0523921e-38
0.25726533 -0.49895692 -0.29423812 0 0 0 7.0523921e-38
0.2691381 -0.48047018 -0.37985399 0 0 0 7.0523921e-38
0.20497131 -0.58053112 -0.45212632 0 0 0 7.0523921e-38
0.45125556 -0.58349991 -0.91332161 0 0 0 7.0523921e-38
0.12263441 -0.71031737 -1.0146673 0 0 0 7.0523921e-38
0.1154294 -0.72181869 -1.0896387 0 0 0 7.0523921e-38
0.17570472 -0.62845874 -1.1966219 0 0 0 7.0523921e-38
0.17750955 -0.62594509 -1.2770315 0 0 0 7.0523921e-38
0.2623148 -0.5182972 -0.21004632 0 0 0 7.0523921e-38
0.26972628 -0.50698757 -0.29423812 0 0 0 7.0523921e-38
0.26866627 -0.50862694 -0.37793717 0 0 0 7.0523921e-38
0.208529 -0.60176849 -0.45056859 0 0 0 7.0523921e-38
0.11960006 -0.74084926 -1.0084668 0 0 0 7.0523921e-38
0.12085891 -0.73918891 -1.0867876 0 0 0 7.0523921e-38
0.18145299 -0.64597821 -1.1935797 0 0 0 7.0523921e-38
0.18433952 -0.64181018 -1.2743397 0 0 0 7.0523921e-38
0.26586866 -0.5444262 -0.2091544 0 0 0 7.0523921e-38
0.28423238 -0.51640606 -0.29423812 0 0 0 7.0523921e-38
0.29078722 -0.50635099 -0.37905532 0 0 0 7.0523921e-38
0.21073055 -0.62930417 -0.44842675 0 0 0 7.0523921e-38
0.13325 -0.74971581 -1.0084668 0 0 0 7.0523921e-38
0.13876009 -0.7415514 -1.0886884 0 0 0 7.0523921e-38
0.20919108 -0.63400722 -1.2001712 0 0 0 7.0523921e-38
0.20361423 -0.64284849 -1.2770315 0 0 0 7.0523921e-38
0.28462625 -0.54715133 -0.20951116 0 0 0 7.0523921e-38
0.30089617 -0.52254128 -0.29448706 0 0 0 7.0523921e-38
0.29872656 -0.52584314 -0.37809688 0 0 0 7.0523921e-38
0.21932292 -0.64682293 -0.44745317 0 0 0 7.0523921e-38
0.14258146 -0.76515126 -1.0066953 0 0 0 7.0523921e-38
0.14173436 -0.76672149 -1.0839363 0 0 0 7.0523921e-38
0.21472859 -0.65613484 -1.1961149 0 0 0 7.0523921e-38
0.21127272 -0.66167998 -1.2738013 0 0 0 7.0523921e-38
0.30355048 -0.54526973 -0.21004632 0 0 0 7.0523921e-38
0.3187902 -0.52238536 -0.29510939 0 0 0 7.0523921e-38
0.31330299 -0.53067851 -0.37841636 0 0 0 7.0523921e-38
0.24010658 -0.64145327 -0.44901088 0 0 0 7.0523921e-38
0.15743661 -0.76794147 -1.0080239 0 0 0 7.0523921e-38
0.19088793 -0.71768999 -1.1005684 0 0 0 7.0523921e-38
0.22990012 -0.65919161 -1.197636 0 0 0 7.0523921e-38
0.23598337 -0.65029287 -1.2802619 0 0 0 7.0523921e-38
0.31237316 -0.56312323 -0.20960036 0 0 0 7.0523921e-38
0.33323932 -0.53198338 -0.29510939 0 0 0 7.0523921e-38
0.30559897 -0.57342839 -0.37522164 0 0 0 7.0523921e-38
0.23865771 -0.67394614 -0.44628489 0 0 0 7.0523921e-38
0.25541997 -0.65040159 -1.0425695 0 0 0 7.0523921e-38
0.25638103 -0.64925027 -1.1233782 0 0 0 7.0523921e-38
0.25029182 -0.65880775 -1.2006782 0 0 0 7.0523921e-38
0.25424147 -0.65317822 -1.2824153 0 0 0 7.0523921e-38
0.3311317 -0.56606483 -0.20995712 0 0 0 7.0523921e-38
0.35210776 -0.53500819 -0.29560727 0 0 0 7.0523921e-38
0.3309834 -0.56643271 -0.37681898 0 0 0 7.0523921e-38
0.26254654 -0.66838241 -0.44803733 0 0 0 7.0523921e-38
0.26831222 -0.66138506 -1.0421267 0 0 0 7.0523921e-38
0.27578664 -0.65055871 -1.1257541 0 0 0 7.0523921e-38
0.25992227 -0.67457509 -1.1986501 0 0 0 7.0523921e-38
0.2703619 -0.65934253 -1.2834921 0 0 0 7.0523921e-38
0.35681987 -0.55447102 -0.21102743 0 0 0 7.0523921e-38
0.34881926 -0.56643963 -0.37761769 0 0 0 7.0523921e-38
0.27893806 -0.66983509 -0.44881618 0 0 0 7.0523921e-38
0.29119778 -0.65330005 -1.0465556 0 0 0 7.0523921e-38
0.2888608 -0.65703821 -1.1262293 0 0 0 7.0523921e-38
0.28701949 -0.66018701 -1.2057487 0 0 0 7.0523921e-38
0.30392194 -0.63551712 -1.2942597 0 0 0 7.0523921e-38
0.36647701 -0.57120681 -0.37809688 0 0 0 7.0523921e-38
0.29845595 -0.67106462 -0.44978973 0 0 0 7.0523921e-38
0.30736613 -0.65957427 -1.0474414 0 0 0 7.0523921e-38
0.31376839 -0.65047979 -1.1309813 0 0 0 7.0523921e-38
0.30859876 -0.65848255 -1.209298 0 0 0 7.0523921e-38
0.32990217 -0.62756085 -1.3001817 0 0 0 7.0523921e-38
0.42931461 -0.5103395 -0.38496557 0 0 0 7.0523921e-38
0.331532 -0.65270376 -0.45309988 0 0 0 7.0523921e-38
0.33457637 -0.64984679 -1.0527561 0 0 0 7.0523921e-38
0.34976888 -0.62804699 -1.1404854 0 0 0 7.0523921e-38
0.3571043 -0.64132714 -0.45543647 0 0 0 7.0523921e-38
0.35655618 -0.64368892 -1.0567421 0 0 0 7.0523921e-38
0.40642285 -0.60045767 -0.4614726 0 0 0 7.0523921e-38
0.24774575 -0.49824882 -0.12682399 0 0 0 7.0523921e-38
0.26670504 -0.49616504 -0.12714671 0 0 0 7.0523921e-38
0.26709604 -0.52737069 -0.12644751 0 0 0 7.0523921e-38
0.30123663 -0.50666952 -0.12741563 0 0 0 7.0523921e-38
0.33457732 -0.48312116 -0.12843753 0 0 0 7.0523921e-38
0.34363866 -0.50110388 -0.12816861 0 0 0 7.0523921e-38
