# .PCD v0.7 - Point Cloud Data file format
VERSION 0.7
FIELDS x y z
SIZE 4 4 4
TYPE F F F
COUNT 1 1 1
WIDTH 245
HEIGHT 1
VIEWPOINT 0 0 0 1 0 0 0
POINTS 245
DATA ascii
1.7112374 13.179405 -0.51473308
1.7064558 13.142578 -0.74814528
1.6927127 13.038515 -0.97452211
1.7470986 13.132362 -0.5131076
1.747736 13.137153 -0.74814528
1.7444488 13.114195 -0.98058331
1.7350791 13.043756 -1.2081838
1.794407 13.11993 -0.51287538
1.7999331 13.160335 -0.74983615
1.7952054 13.127475 -0.98206168
1.7799069 13.015604 -1.2061722
1.8381088 13.132041 -0.51357204
1.8351789 13.111109 -0.74735624
1.8345026 13.107943 -0.98102683
1.8249284 13.039534 -1.2089152
1.8839535 13.10939 -0.5129528
1.8832211 13.104295 -0.74735624
1.8802637 13.085337 -0.97984415
1.88064 13.087956 -1.2140354
1.9378198 13.141939 -0.51450086
1.9289079 13.0815 -0.74645442
1.9322841 13.105983 -0.98191381
1.9454459 13.195254 -1.2246416
1.9850781 13.12882 -0.51426864
1.9804233 13.098035 -0.74780709
1.9817977 13.108673 -0.98265302
1.9866507 13.140773 -1.2202528
2.0321085 13.160047 -0.51573932
2.0236955 13.105563 -0.74859619
2.0263178 13.124065 -0.98427916
2.0276201 13.132499 -1.2200699
2.0837631 13.174224 -0.51659077
2.080451 13.153282 -0.75175244
2.0821955 13.165801 -0.987975
2.0797839 13.150552 -1.2224472
2.1384242 13.205954 -0.51813883
2.1522658 13.291433 -0.76009393
2.1919503 13.272127 -0.52100277
2.1588707 13.071832 -0.74791986
2.1891394 12.959478 -0.74194551
2.2389891 13.00567 -0.74498904
1.7118547 13.055653 -1.1323173
1.7604935 13.055215 -1.1328313
1.8219676 13.19789 -0.28000882
1.8017714 13.051594 -1.1330028
1.8616263 13.129751 -0.27870604
1.8481971 13.035038 -1.132146
1.907721 13.108989 -0.2784119
1.9008389 13.061698 -1.135059
1.9503654 13.11282 -0.278622
2.3582582 12.169607 -0.91878867
1.9442092 13.071429 -1.1364298
2.3419828 11.851763 -0.46790397
2.3880136 12.084703 -0.6953907
2.3835154 12.063047 -0.91139698
1.996611 13.093764 -1.1390002
2.3943264 12.117763 -1.1341238
2.3932981 11.882282 -0.46945205
2.4251933 12.040635 -0.6933617
2.4269249 12.05032 -0.91110134
2.0479722 13.108014 -1.1408851
2.4174905 12.003475 -1.1242491
2.4326196 11.884495 -0.46983907
2.4586034 12.011437 -0.69212174
2.4571714 12.005509 -0.90829247
2.0903974 13.109387 -1.1415706
2.4503965 11.972407 -1.1220547
1.8920765 11.865669 -1.2459282
2.4810572 11.898976 -0.47076792
2.4985349 11.982798 -0.6909945
2.4995291 11.988612 -0.90770113
2.1512711 13.180303 -1.1484247
2.489383 11.939949 -1.1198603
2.5283883 11.907396 -0.47146454
2.5449259 11.985279 -0.69167084
2.5430384 11.97742 -0.90755332
2.5385058 11.956072 -1.1222376
2.5733664 11.93456 -0.4728578
2.5867751 11.996745 -0.69279808
2.5865393 11.996668 -0.90962297
2.5794125 11.963613 -1.1237005
2.6265163 11.967993 -0.47456068
1.6951067 13.134154 -0.66947556
2.6367204 12.014489 -0.69437623
1.6838789 13.047158 -0.89822727
2.6398971 12.029966 -0.91287535
2.6505649 12.07858 -1.1354038
1.7371178 13.13449 -0.43488035
2.6758342 12.012351 -0.47665057
1.7353128 13.120844 -0.66907167
1.7413414 13.166426 -0.90681034
1.7970523 13.214851 -0.20135744
1.7892866 13.157745 -0.43586454
1.7885053 13.152 -0.67099023
1.7850163 13.126344 -0.90449429
1.8332992 13.121033 -0.20002896
1.8352873 13.135262 -0.43533963
1.8281293 13.084032 -0.66785997
1.8298014 13.095999 -0.90285939
1.8813778 13.114225 -0.20002896
2.2897229 12.141248 -0.25966898
1.8888115 13.166041 -0.43658626
1.8791926 13.098992 -0.6689707
1.8763716 13.079329 -0.90217823
1.9208269 13.096378 -0.19984779
2.3248405 12.118285 -0.25933278
1.9307445 13.163998 -0.43671751
1.9183059 13.07919 -0.66826385
1.9177418 13.075343 -0.90231442
1.9720865 13.111003 -0.20017992
1.9795747 13.160787 -0.43684873
1.9689046 13.089849 -0.66917264
1.9721818 13.111636 -0.9053117
2.408443 12.108063 -0.25945887
2.0288026 13.205872 -0.43855464
2.0194204 13.144801 -0.6723029
2.0142725 13.111293 -0.90572041
2.4172215 12.152196 -1.0654887
2.4492295 12.081517 -0.25908065
2.0765693 13.194398 -0.43842342
2.0725536 13.168882 -0.67391855
2.0756536 13.188579 -0.91157871
2.4447215 12.059279 -1.0581204
2.4505391 12.087976 -1.2789328
2.4898539 12.054834 -0.25870243
2.1369996 13.26169 -0.44091672
2.1443212 13.307126 -0.68139082
2.4760065 11.987791 -1.052637
2.4714887 11.965918 -1.2669686
2.5293553 12.054781 -0.25887051
2.1346056 12.986935 -0.66533554
2.5091538 11.958502 -1.050752
2.5017152 11.923049 -1.2632556
2.5802059 12.076716 -0.25954291
2.1828532 12.982964 -0.66553748
2.5508854 11.939482 -1.0498953
2.5495551 11.933254 -1.2653184
2.233469 12.992593 -0.66644627
2.605639 11.980677 -1.0543505
2.599617 11.952988 -1.2684126
1.7094541 13.127986 -0.59098381
1.7042018 13.085867 -0.82284611
1.691501 12.988342 -1.0494704
2.6475604 11.99189 -1.0560641
1.7055409 13.094364 -1.2917339
1.7633946 13.165199 -0.59294605
1.756128 13.109209 -0.82471311
1.7451824 13.027502 -1.0531445
1.7508795 13.068296 -1.2897867
1.8116356 13.158648 -0.59294605
1.8085204 13.134324 -0.82670456
1.7978139 13.056568 -1.0560197
1.7946922 13.032213 -1.2868659
1.8498998 13.131128 -0.5919649
1.8469892 13.108811 -0.8254599
1.8413267 13.068623 -1.0574573
1.8442352 13.087612 -1.2929021
1.8934398 13.092621 -0.59053785
1.8910226 13.074296 -0.82371742
1.889784 13.065732 -1.0577768
2.2942157 11.853519 -0.39630014
1.9458121 13.115238 -0.59187573
1.9403945 13.077149 -0.82433975
2.3450973 12.116409 -0.84264153
1.9397079 13.072522 -1.0588949
2.3322151 11.850176 -0.39643136
1.9897001 13.12684 -0.59267843
2.3864241 12.125615 -0.62474287
1.9868531 13.106514 -0.82658011
2.3766 12.0757 -0.84032547
1.986444 13.103815 -1.0619299
2.3768122 11.847428 -0.3966282
2.0439324 13.158946 -0.59446228
2.4115987 12.020824 -0.61979502
2.0364099 13.109006 -0.82720244
2.4126017 12.025824 -0.83746445
2.0384369 13.122056 -1.0640064
2.4761202 12.11208 -0.18665344
2.4278262 11.875847 -0.39787483
2.0956016 13.173071 -0.59544337
2.4548409 12.007991 -0.61959308
2.0979295 13.186221 -0.83255452
2.4538648 12.003216 -0.83651072
2.0937226 13.15978 -1.0676805
2.5084655 12.07683 -0.18623073
2.4760993 11.921004 -0.39964637
2.1552212 13.278838 -0.60052735
2.4905219 11.990441 -0.61908817
2.4875038 11.975911 -0.83514833
2.5564373 12.085163 -0.18650247
2.5272214 11.94705 -0.40082741
2.2042034 13.27282 -0.60061651
2.5361059 11.989049 -0.61949211
2.5338588 11.978427 -0.83596581
2.5869851 12.011964 -0.40332067
2.5804513 11.981626 -0.61959308
2.5882473 12.017825 -0.8393718
2.6270401 12.014439 -0.62171358
2.634088 12.046671 -0.84196031
2.7040281 12.152911 -0.6293878
1.8006073 13.251388 -0.35976493
1.8306957 13.162742 -0.12200622
1.8419535 13.243685 -0.35971114
1.8732722 13.116346 -0.12163901
1.883415 13.187365 -0.35836655
1.9248135 13.133138 -0.12185934
1.9340558 13.196198 -0.35879681
1.9808336 13.225647 -0.35976493
2.3656855 12.147758 -0.77169055
2.3646131 12.142252 -0.99116653
2.0374861 13.271654 -0.36121711
2.4274335 12.226954 -0.55646664
2.3950324 12.062648 -0.76683635
2.3912413 12.043553 -0.98381865
2.4338527 12.257047 -1.2224156
2.4385495 12.051517 -0.54888535
2.4324975 12.020528 -0.76472044
2.4274588 11.995628 -0.9806239
2.4234838 11.974912 -1.1951556
2.4715695 12.020311 -0.54781508
2.4690428 12.006962 -0.76434702
2.4659352 11.991849 -0.98094338
2.4602902 11.963339 -1.1947662
2.5115137 11.991616 -0.54692316
2.5073049 11.970479 -0.76260448
2.5082362 11.974925 -0.98030442
2.5008569 11.938656 -1.1932085
2.5483427 11.979758 -0.54674476
2.5540366 12.005497 -0.76534277
2.5504072 11.988436 -0.98206156
2.5453925 11.963838 -1.1965187
2.594348 11.980102 -0.54719073
2.5959094 11.9863 -0.76472044
2.5977056 11.994595 -0.98333943
2.6056581 12.030298 -1.2041124
2.6438303 11.995878 -0.54835021
2.6552916 12.046882 -0.76920122
2.6455128 12.002516 -0.98477709
2.6963327 12.053807 -0.55138272
2.299289 11.919872 -0.32657987
2.3410327 11.901556 -0.32631093
2.4180055 12.09215 -0.33174318
2.4631076 12.087124 -0.33185074
2.5082052 12.08193 -0.33195832
2.5523372 12.103334 -0.3327651
