# .PCD v0.7 - Point Cloud Data file format
VERSION 0.7
FIELDS x y z normal_x normal_y normal_z curvature
SIZE 4 4 4 4 4 4 4
TYPE F F F F F F F
COUNT 1 1 1 1 1 1 1
WIDTH 754
HEIGHT 1
VIEWPOINT 0 0 0 1 0 0 0
POINTS 754
DATA ascii
-0.44797826 0.67768192 -0.51220262 0 0 0 1.0239622e-37
-0.42736185 0.67465162 -0.51256835 0 0 0 1.0239622e-37
-0.41010988 0.67081165 -0.41393536 0 0 0 1.0239622e-37
-0.42156231 0.6387682 -0.50964254 0 0 0 1.0239622e-37
-0.39356029 0.65638447 -0.41334403 0 0 0 1.0239622e-37
-0.39970887 0.63937807 -0.51037395 0 0 0 1.0239622e-37
-0.37025332 0.66913748 -0.41482237 0 0 0 1.0239622e-37
-0.38124645 0.6390276 -0.51092255 0 0 0 1.0239622e-37
-0.35652471 0.64709902 -0.41363969 0 0 0 1.0239622e-37
-0.36348081 0.62826109 -0.51055682 0 0 0 1.0239622e-37
-0.33246553 0.65305805 -0.41467455 0 0 0 1.0239622e-37
-0.34019446 0.63236094 -0.51165402 0 0 0 1.0239622e-37
-0.30211627 0.68345642 -0.21820039 0 0 0 1.0239622e-37
-0.31530607 0.64874983 -0.41482237 0 0 0 1.0239622e-37
-0.3266139 0.61875629 -0.51092255 0 0 0 1.0239622e-37
-0.2913512 0.65372753 -0.21727154 0 0 0 1.0239622e-37
-0.26457977 0.72395229 -0.32092354 0 0 0 1.0239622e-37
-0.29115224 0.65452433 -0.41585723 0 0 0 1.0239622e-37
-0.31179965 0.60036039 -0.50982541 0 0 0 1.0239622e-37
-0.28005862 0.62585545 -0.2164201 0 0 0 1.0239622e-37
-0.22645235 0.76493788 -0.32385436 0 0 0 1.0239622e-37
-0.26621246 0.66205263 -0.4170399 0 0 0 1.0239622e-37
-0.28993142 0.60051012 -0.51055682 0 0 0 1.0239622e-37
-0.27020979 0.60275364 -0.21572347 0 0 0 1.0239622e-37
-0.24584484 0.66538239 -0.3182182 0 0 0 1.0239622e-37
-0.24683619 0.66310549 -0.41763121 0 0 0 1.0239622e-37
-0.27652907 0.58677769 -0.50982541 0 0 0 1.0239622e-37
-0.24534678 0.61019611 -0.2163427 0 0 0 1.0239622e-37
-0.23537326 0.6355567 -0.3168655 0 0 0 1.0239622e-37
-0.22468352 0.66300774 -0.41822255 0 0 0 1.0239622e-37
-0.24882936 0.60160589 -0.51201975 0 0 0 1.0239622e-37
-0.23664284 0.57666826 -0.21525905 0 0 0 1.0239622e-37
-0.22066712 0.61685848 -0.31618917 0 0 0 1.0239622e-37
-0.2025044 0.66281748 -0.41881388 0 0 0 1.0239622e-37
-0.23350024 0.58483744 -0.51110542 0 0 0 1.0239622e-37
-0.22265959 0.5646286 -0.21502684 0 0 0 1.0239622e-37
-0.20432544 0.61033297 -0.31618917 0 0 0 1.0239622e-37
-0.19121623 0.64327669 -0.41777906 0 0 0 1.0239622e-37
-0.21355176 0.58759451 -0.51201975 0 0 0 1.0239622e-37
-0.44273579 0.67115927 -0.57799512 0 0 0 1.0239622e-37
-0.19477773 0.57924318 -0.21595567 0 0 0 1.0239622e-37
-0.18303561 0.60820675 -0.31652734 0 0 0 1.0239622e-37
-0.16381383 0.65588331 -0.41940522 0 0 0 1.0239622e-37
-0.4223665 0.66746664 -0.47962412 0 0 0 1.0239622e-37
-0.18412066 0.60579062 -0.51457983 0 0 0 1.0239622e-37
-0.43146431 0.64186049 -0.5755198 0 0 0 1.0239622e-37
-0.43644345 0.62784672 -0.6719119 0 0 0 1.0239622e-37
-0.44527614 0.60298634 -0.76610112 0 0 0 1.0239622e-37
-0.17433739 0.57522869 -0.21611048 0 0 0 1.0239622e-37
-0.15719151 0.61708069 -0.31754184 0 0 0 1.0239622e-37
-0.143852 0.64990187 -0.41955307 0 0 0 1.0239622e-37
-0.41120446 0.63808489 -0.47756785 0 0 0 1.0239622e-37
-0.16056848 0.60909653 -0.51567703 0 0 0 1.0239622e-37
-0.41028941 0.64063072 -0.57613862 0 0 0 1.0239622e-37
-0.41733849 0.62101889 -0.6719119 0 0 0 1.0239622e-37
-0.42961252 0.58687067 -0.76472378 0 0 0 1.0239622e-37
-0.14743853 0.59441519 -0.21719414 0 0 0 1.0239622e-37
-0.1182642 0.66525412 -0.42132708 0 0 0 1.0239622e-37
-0.39207578 0.63965034 -0.47825328 0 0 0 1.0239622e-37
-0.1419692 0.60790396 -0.51622564 0 0 0 1.0239622e-37
-0.39658725 0.62722111 -0.57531351 0 0 0 1.0239622e-37
-0.3969183 0.62630892 -0.6733579 0 0 0 1.0239622e-37
-0.4153918 0.57541561 -0.76389736 0 0 0 1.0239622e-37
-0.092875242 0.6719842 -0.42250976 0 0 0 1.0239622e-37
-0.37567484 0.62517786 -0.47756785 0 0 0 1.0239622e-37
-0.11833429 0.6110239 -0.51732284 0 0 0 1.0239622e-37
-0.37679935 0.62211514 -0.5755198 0 0 0 1.0239622e-37
-0.37850356 0.61747313 -0.67311686 0 0 0 1.0239622e-37
-0.38487303 0.60012436 -0.76858044 0 0 0 1.0239622e-37
-0.069734097 0.67308521 -0.42324892 0 0 0 1.0239622e-37
-0.35727382 0.61625957 -0.47739649 0 0 0 1.0239622e-37
-0.09697032 0.60853577 -0.51787138 0 0 0 1.0239622e-37
-0.34940648 0.63744831 -0.57799512 0 0 0 1.0239622e-37
-0.33386683 0.67930031 -0.68203396 0 0 0 1.0239622e-37
-0.3375994 0.66924715 -0.77987498 0 0 0 1.0239622e-37
-0.31943333 0.66751528 -0.11796259 0 0 0 1.0239622e-37
-0.043061495 0.68994284 -0.42517075 0 0 0 1.0239622e-37
-0.34093344 0.61016321 -0.47739649 0 0 0 1.0239622e-37
-0.072075367 0.62177944 -0.51988292 0 0 0 1.0239622e-37
-0.32601655 0.64995432 -0.58005792 0 0 0 1.0239622e-37
-0.33475184 0.62665272 -0.67600888 0 0 0 1.0239622e-37
-0.33708596 0.62042665 -0.77353901 0 0 0 1.0239622e-37
-0.30514514 0.64717054 -0.11766842 0 0 0 1.0239622e-37
-0.015065193 0.70182896 -0.42679694 0 0 0 1.0239622e-37
-0.31694984 0.61602879 -0.47859597 0 0 0 1.0239622e-37
-0.037260771 0.65020943 -0.5235402 0 0 0 1.0239622e-37
-0.31247234 0.627841 -0.5784077 0 0 0 1.0239622e-37
-0.310022 0.634305 -0.67793691 0 0 0 1.0239622e-37
-0.31941319 0.60953045 -0.77298808 0 0 0 1.0239622e-37
-0.30442965 0.59982538 -0.11674388 0 0 0 1.0239622e-37
0.020589352 0.73857307 -0.43034494 0 0 0 1.0239622e-37
-0.30132258 0.60794497 -0.47842464 0 0 0 1.0239622e-37
0.018808126 0.73446608 -0.53268343 0 0 0 1.0239622e-37
-0.29609585 0.62160349 -0.5784077 0 0 0 1.0239622e-37
-0.30355918 0.6020999 -0.67456287 0 0 0 1.0239622e-37
-0.31088185 0.58296394 -0.76995784 0 0 0 1.0239622e-37
-0.27749228 0.61302757 -0.11720615 0 0 0 1.0239622e-37
-0.28372955 0.59690523 -0.47808191 0 0 0 1.0239622e-37
0.034304857 0.71684837 -0.5317691 0 0 0 1.0239622e-37
-0.28634572 0.59014273 -0.57572609 0 0 0 1.0239622e-37
-0.28884768 0.58367538 -0.67311686 0 0 0 1.0239622e-37
-0.29194224 0.57567644 -0.76995784 0 0 0 1.0239622e-37
-0.25698614 0.6093421 -0.1172902 0 0 0 1.0239622e-37
-0.25820708 0.60622072 -0.47962412 0 0 0 1.0239622e-37
-0.26882935 0.57906008 -0.57531351 0 0 0 1.0239622e-37
-0.27424455 0.5652132 -0.67167085 0 0 0 1.0239622e-37
-0.26797891 0.58123398 -0.77188617 0 0 0 1.0239622e-37
-0.24800944 0.58433151 -0.11686996 0 0 0 1.0239622e-37
-0.24189878 0.59981298 -0.47962412 0 0 0 1.0239622e-37
-0.24968457 0.58008766 -0.57613862 0 0 0 1.0239622e-37
-0.25514936 0.56624317 -0.6726349 0 0 0 1.0239622e-37
-0.25756741 0.56011677 -0.76968235 0 0 0 1.0239622e-37
-0.22239661 0.59352875 -0.11724818 0 0 0 1.0239622e-37
-0.21699071 0.60707903 -0.48099497 0 0 0 1.0239622e-37
-0.22633314 0.58366203 -0.57737631 0 0 0 1.0239622e-37
-0.22965002 0.57534838 -0.67480391 0 0 0 1.0239622e-37
-0.23137164 0.571033 -0.7724371 0 0 0 1.0239622e-37
-0.20416665 0.58406258 -0.11720615 0 0 0 1.0239622e-37
-0.19423747 0.60868788 -0.48185173 0 0 0 1.0239622e-37
-0.19548869 0.6055851 -0.58067679 0 0 0 1.0239622e-37
-0.21370864 0.5603981 -0.67383987 0 0 0 1.0239622e-37
-0.21469855 0.55794287 -0.77161068 0 0 0 1.0239622e-37
-0.17315125 0.60601187 -0.11787854 0 0 0 1.0239622e-37
-0.168437 0.61758089 -0.48339394 0 0 0 1.0239622e-37
-0.17871904 0.59234762 -0.58005792 0 0 0 1.0239622e-37
-0.18511271 0.57665682 -0.67697293 0 0 0 1.0239622e-37
-0.18762875 0.57048273 -0.77464092 0 0 0 1.0239622e-37
-0.44529784 0.57548475 -0.85931253 0 0 0 1.0239622e-37
-0.38858938 0.68250132 -0.38256061 0 0 0 1.0239622e-37
-0.15133572 0.61273384 -0.4835653 0 0 0 1.0239622e-37
-0.15413356 0.60592937 -0.58232701 0 0 0 1.0239622e-37
-0.16663265 0.57552862 -0.67769593 0 0 0 1.0239622e-37
-0.16691327 0.57484627 -0.77629381 0 0 0 1.0239622e-37
-0.43914223 0.54178524 -0.8546676 0 0 0 1.0239622e-37
-0.45500398 0.49753618 -0.9426977 0 0 0 1.0239622e-37
-0.45539308 0.49645758 -1.0377626 0 0 0 1.0239622e-37
-0.41767931 0.60071611 -1.1561022 0 0 0 1.0239622e-37
-0.37202013 0.66799974 -0.38201565 0 0 0 1.0239622e-37
-0.12770128 0.6159029 -0.48459342 0 0 0 1.0239622e-37
-0.13587403 0.59623051 -0.58212072 0 0 0 1.0239622e-37
-0.13705754 0.59338188 -0.68106991 0 0 0 1.0239622e-37
-0.14116454 0.58349562 -0.77877307 0 0 0 1.0239622e-37
-0.41628897 0.54610538 -0.8565256 0 0 0 1.0239622e-37
-0.43097341 0.50558519 -0.94544607 0 0 0 1.0239622e-37
-0.44080937 0.47862959 -1.0355 0 0 0 1.0239622e-37
-0.41343677 0.55336523 -1.1470765 0 0 0 1.0239622e-37
-0.35413754 0.66569424 -0.38228813 0 0 0 1.0239622e-37
-0.10597134 0.6219492 -0.48579291 0 0 0 1.0239622e-37
-0.11190796 0.6077857 -0.58418351 0 0 0 1.0239622e-37
-0.12155747 0.58476257 -0.68082893 0 0 0 1.0239622e-37
-0.11880231 0.59133577 -0.78097689 0 0 0 1.0239622e-37
-0.40768301 0.51980019 -0.85311931 0 0 0 1.0239622e-37
-0.42111123 0.48308182 -0.94235414 0 0 0 1.0239622e-37
-0.42829633 0.46358156 -1.0336145 0 0 0 1.0239622e-37
-0.40947628 0.51438427 -1.1396919 0 0 0 1.0239622e-37
-0.33350122 0.6623044 -0.38256061 0 0 0 1.0239622e-37
-0.076789618 0.63776493 -0.48802054 0 0 0 1.0239622e-37
-0.087448835 0.61259174 -0.5856275 0 0 0 1.0239622e-37
-0.08325839 0.62248802 -0.68685395 0 0 0 1.0239622e-37
-0.085929871 0.61617899 -0.78593546 0 0 0 1.0239622e-37
-0.34689033 0.62581158 -0.87200868 0 0 0 1.0239622e-37
-0.375018 0.5500493 -0.95609605 0 0 0 1.0239622e-37
-0.40842199 0.4604063 -1.0343688 0 0 0 1.0239622e-37
-0.38600266 0.52029848 -1.1425637 0 0 0 1.0239622e-37
-0.32271791 0.63267851 -0.18312478 0 0 0 1.0239622e-37
-0.31356728 0.65696669 -0.38269687 0 0 0 1.0239622e-37
-0.057650566 0.62961912 -0.48802054 0 0 0 1.0239622e-37
-0.062925339 0.61728859 -0.58707142 0 0 0 1.0239622e-37
-0.052462339 0.64174747 -0.69046897 0 0 0 1.0239622e-37
-0.054404497 0.63720751 -0.79034311 0 0 0 1.0239622e-37
-0.33127689 0.60941076 -0.87046039 0 0 0 1.0239622e-37
-0.34230387 0.57987213 -0.96296704 0 0 0 1.0239622e-37
-0.36984646 0.50677872 -1.0453045 0 0 0 1.0239622e-37
-0.37212408 0.50046492 -1.1396919 0 0 0 1.0239622e-37
-0.27633667 0.70532227 -0.085506715 0 0 0 1.0239622e-37
-0.30277312 0.63581514 -0.18345284 0 0 0 1.0239622e-37
-0.28929639 0.67124796 -0.38419548 0 0 0 1.0239622e-37
-0.023112297 0.66466188 -0.49196172 0 0 0 1.0239622e-37
0.016468525 0.75639105 -0.6035738 0 0 0 1.0239622e-37
0.021378279 0.76776934 -0.70806211 0 0 0 1.0239622e-37
-0.3177681 0.5958457 -0.86922175 0 0 0 1.0239622e-37
-0.33028114 0.56267929 -0.96090573 0 0 0 1.0239622e-37
-0.34337485 0.5282588 -1.0509609 0 0 0 1.0239622e-37
-0.35197139 0.50539303 -1.1421535 0 0 0 1.0239622e-37
-0.28709483 0.61951351 -0.084238604 0 0 0 1.0239622e-37
-0.29798901 0.59118319 -0.18214059 0 0 0 1.0239622e-37
-0.28010082 0.63770151 -0.28303772 0 0 0 1.0239622e-37
-0.2728982 0.65643167 -0.38365054 0 0 0 1.0239622e-37
0.022397995 0.71659994 -0.49761644 0 0 0 1.0239622e-37
0.036836386 0.7497263 -0.60378009 0 0 0 1.0239622e-37
0.02592063 0.72468185 -0.70348305 0 0 0 1.0239622e-37
-0.2973628 0.5922718 -0.86984104 0 0 0 1.0239622e-37
-0.30929399 0.56098032 -0.96193641 0 0 0 1.0239622e-37
-0.31970012 0.53392363 -1.0536005 0 0 0 1.0239622e-37
-0.33261323 0.50008345 -1.1425637 0 0 0 1.0239622e-37
-0.27236915 0.60095549 -0.08405745 0 0 0 1.0239622e-37
-0.27612233 0.59130096 -0.18240304 0 0 0 1.0239622e-37
-0.25372314 0.64891815 -0.28404748 0 0 0 1.0239622e-37
-0.24356771 0.6750412 -0.38555789 0 0 0 1.0239622e-37
0.057079315 0.74274158 -0.50087219 0 0 0 1.0239622e-37
0.057987928 0.74480534 -0.60419261 0 0 0 1.0239622e-37
0.046177387 0.71797657 -0.70372409 0 0 0 1.0239622e-37
-0.28053737 0.57941008 -0.86891204 0 0 0 1.0239622e-37
-0.29114902 0.5518508 -0.96159285 0 0 0 1.0239622e-37
-0.29880488 0.53216076 -1.0547318 0 0 0 1.0239622e-37
-0.31752419 0.48375463 -1.1405125 0 0 0 1.0239622e-37
-0.25899887 0.58714581 -0.083936676 0 0 0 1.0239622e-37
-0.25621009 0.59425402 -0.18273111 0 0 0 1.0239622e-37
-0.2533319 0.60158873 -0.28182599 0 0 0 1.0239622e-37
-0.24307752 0.62772274 -0.38256061 0 0 0 1.0239622e-37
0.060418367 0.70516825 -0.70300108 0 0 0 1.0239622e-37
-0.26936555 0.56019783 -0.8667444 0 0 0 1.0239622e-37
-0.27141237 0.55471754 -0.9633106 0 0 0 1.0239622e-37
-0.27698874 0.54050827 -1.0577486 0 0 0 1.0239622e-37
-0.27657104 0.54130983 -1.1548713 0 0 0 1.0239622e-37
-0.23930717 0.58152771 -0.083966866 0 0 0 1.0239622e-37
-0.2431252 0.57190132 -0.1822062 0 0 0 1.0239622e-37
-0.24021578 0.57923651 -0.28101817 0 0 0 1.0239622e-37
-0.21441102 0.64429903 -0.38433173 0 0 0 1.0239622e-37
0.078990936 0.69470739 -0.70276004 0 0 0 1.0239622e-37
-0.24540997 0.56561518 -0.86891204 0 0 0 1.0239622e-37
-0.25039721 0.55278015 -0.96434122 0 0 0 1.0239622e-37
-0.25892925 0.53127146 -1.0573715 0 0 0 1.0239622e-37
-0.2173636 0.63579082 -1.1778457 0 0 0 1.0239622e-37
-0.2211175 0.57212162 -0.083936676 0 0 0 1.0239622e-37
-0.2182765 0.57920885 -0.18273111 0 0 0 1.0239622e-37
-0.20865583 0.60320854 -0.28273478 0 0 0 1.0239622e-37
-0.18856549 0.65332651 -0.38555789 0 0 0 1.0239622e-37
-0.4401046 0.68424416 -0.54656267 0 0 0 1.0239622e-37
0.091786146 0.67152119 -0.70083207 0 0 0 1.0239622e-37
-0.23241663 0.54341602 -0.86643475 0 0 0 1.0239622e-37
-0.23083544 0.54710007 -0.96468478 0 0 0 1.0239622e-37
-0.23652506 0.53290939 -1.0592569 0 0 0 1.0239622e-37
-0.19458866 0.6372447 -1.1798971 0 0 0 1.0239622e-37
-0.19741726 0.58413601 -0.084238604 0 0 0 1.0239622e-37
-0.20954895 0.55414534 -0.18207498 0 0 0 1.0239622e-37
-0.19984746 0.57812834 -0.28172502 0 0 0 1.0239622e-37
-0.16313052 0.66889668 -0.38719276 0 0 0 1.0239622e-37
-0.42938042 0.66224432 -0.44630447 0 0 0 1.0239622e-37
-0.43950546 0.63337851 -0.54188955 0 0 0 1.0239622e-37
0.10747313 0.6622076 -0.70059103 0 0 0 1.0239622e-37
-0.20519042 0.56440258 -0.87107968 0 0 0 1.0239622e-37
-0.21027946 0.55156565 -0.96674609 0 0 0 1.0239622e-37
-0.21602726 0.53735828 -1.0615195 0 0 0 1.0239622e-37
-0.18185401 0.62156439 -1.1778457 0 0 0 1.0239622e-37
-0.15350342 0.63751888 -0.085234977 0 0 0 1.0239622e-37
-0.17180657 0.59274435 -0.1837153 0 0 0 1.0239622e-37
-0.16354275 0.61295986 -0.28404748 0 0 0 1.0239622e-37
-0.14991713 0.64629173 -0.38610286 0 0 0 1.0239622e-37
-0.40947688 0.65726757 -0.44646421 0 0 0 1.0239622e-37
-0.41769361 0.63405752 -0.5426684 0 0 0 1.0239622e-37
0.11506343 0.62814379 -0.69721705 0 0 0 1.0239622e-37
-0.18706751 0.55489922 -0.87077004 0 0 0 1.0239622e-37
-0.19518375 0.53479099 -0.96502835 0 0 0 1.0239622e-37
-0.19130921 0.54426813 -1.0645362 0 0 0 1.0239622e-37
-0.16647792 0.60474443 -1.1757945 0 0 0 1.0239622e-37
-0.13985848 0.61635494 -0.18483071 0 0 0 1.0239622e-37
-0.12236691 0.65869999 -0.38760146 0 0 0 1.0239622e-37
-0.3950212 0.63722181 -0.44534606 0 0 0 1.0239622e-37
-0.40060163 0.6215477 -0.54208428 0 0 0 1.0239622e-37
0.13919258 0.63009501 -0.69866306 0 0 0 1.0239622e-37
-0.16219616 0.56176805 -0.87324733 0 0 0 1.0239622e-37
-0.16739392 0.54893208 -0.9691509 0 0 0 1.0239622e-37
-0.16876245 0.54561949 -1.0664217 0 0 0 1.0239622e-37
-0.14147997 0.6114006 -1.1790766 0 0 0 1.0239622e-37
-0.41245139 0.58576822 -1.2498434 0 0 0 1.0239622e-37
-0.093613148 0.6813345 -0.3897813 0 0 0 1.0239622e-37
-0.37930036 0.62937164 -0.44518632 0 0 0 1.0239622e-37
-0.38219118 0.62119436 -0.5426684 0 0 0 1.0239622e-37
0.14545226 0.60087061 -0.69577104 0 0 0 1.0239622e-37
-0.14602804 0.55505896 -0.87324733 0 0 0 1.0239622e-37
-0.14368582 0.56042576 -0.97258639 0 0 0 1.0239622e-37
-0.1450882 0.55706072 -1.0701927 0 0 0 1.0239622e-37
-0.12741518 0.59920597 -1.1778457 0 0 0 1.0239622e-37
-0.40492904 0.55603838 -1.2440858 0 0 0 1.0239622e-37
-0.31478143 0.74495935 -0.35460424 0 0 0 1.0239622e-37
-0.059602499 0.70819092 -0.39236987 0 0 0 1.0239622e-37
-0.3594979 0.62420464 -0.44534606 0 0 0 1.0239622e-37
-0.35758102 0.62910128 -0.54422611 0 0 0 1.0239622e-37
0.15595388 0.57396793 -0.69336098 0 0 0 1.0239622e-37
-0.12259078 0.55809355 -0.87510532 0 0 0 1.0239622e-37
-0.11871243 0.56705236 -0.97533482 0 0 0 1.0239622e-37
-0.12395787 0.55459642 -1.071324 0 0 0 1.0239622e-37
-0.10537839 0.59846258 -1.1794868 0 0 0 1.0239622e-37
-0.38473225 0.55275393 -1.2449715 0 0 0 1.0239622e-37
-0.31061995 0.70507383 -0.35236385 0 0 0 1.0239622e-37
-0.04297471 0.701159 -0.39236987 0 0 0 1.0239622e-37
-0.34592521 0.61064577 -0.44470713 0 0 0 1.0239622e-37
-0.3467772 0.6080904 -0.5426684 0 0 0 1.0239622e-37
0.16017914 0.54117775 -0.689987 0 0 0 1.0239622e-37
0.15293241 0.52600479 -0.78813928 0 0 0 1.0239622e-37
-0.097936392 0.57126474 -0.87851161 0 0 0 1.0239622e-37
-0.079416275 0.61460924 -0.98564124 0 0 0 1.0239622e-37
-0.095524788 0.57669163 -1.0773574 0 0 0 1.0239622e-37
-0.087564468 0.59517813 -1.1803073 0 0 0 1.0239622e-37
-0.37474191 0.53030396 -1.2409855 0 0 0 1.0239622e-37
-0.28166413 0.72337437 -0.25348264 0 0 0 1.0239622e-37
-0.28840923 0.70525312 -0.3528617 0 0 0 1.0239622e-37
9.5367432e-07 0.74789906 -0.39645705 0 0 0 1.0239622e-37
-0.32194889 0.61653996 -0.44582528 0 0 0 1.0239622e-37
-0.32704139 0.60279608 -0.54286313 0 0 0 1.0239622e-37
0.1694777 0.5124917 -0.68733597 0 0 0 1.0239622e-37
0.18800569 0.55092144 -0.79337335 0 0 0 1.0239622e-37
-0.061119318 0.60495949 -0.88563383 0 0 0 1.0239622e-37
-0.060362339 0.60647345 -0.98564124 0 0 0 1.0239622e-37
-0.069638252 0.58485937 -1.0807513 0 0 0 1.0239622e-37
-0.057773352 0.6122551 -1.1860509 0 0 0 1.0239622e-37
-0.35806525 0.5177784 -1.2396568 0 0 0 1.0239622e-37
-0.26506376 0.70851374 -0.25312588 0 0 0 1.0239622e-37
-0.26545787 0.7072053 -0.35348403 0 0 0 1.0239622e-37
-0.30573356 0.60184431 -0.44518632 0 0 0 1.0239622e-37
-0.31371522 0.58069372 -0.54130542 0 0 0 1.0239622e-37
0.19163108 0.51058531 -0.68829995 0 0 0 1.0239622e-37
-0.015477657 0.65792274 -0.99697834 0 0 0 1.0239622e-37
-0.33657718 0.51795101 -1.2414284 0 0 0 1.0239622e-37
-0.27303267 0.63023758 -0.24973659 0 0 0 1.0239622e-37
-0.25469828 0.67740774 -0.35199046 0 0 0 1.0239622e-37
-0.28600621 0.5963974 -0.44534606 0 0 0 1.0239622e-37
-0.29191363 0.58084345 -0.54208428 0 0 0 1.0239622e-37
0.20592523 0.49254608 -0.68709499 0 0 0 1.0239622e-37
-0.31506193 0.51803446 -1.2431999 0 0 0 1.0239622e-37
-0.25592279 0.62573814 -0.24982579 0 0 0 1.0239622e-37
-0.23599005 0.67656803 -0.35236385 0 0 0 1.0239622e-37
-0.26320815 0.60679293 -0.44678369 0 0 0 1.0239622e-37
-0.27568483 0.57454205 -0.54208428 0 0 0 1.0239622e-37
0.211303 0.46332932 -0.68420297 0 0 0 1.0239622e-37
-0.29406619 0.52452374 -1.2463002 0 0 0 1.0239622e-37
-0.24708724 0.59222651 -0.2485771 0 0 0 1.0239622e-37
-0.21597576 0.6708622 -0.35248831 0 0 0 1.0239622e-37
-0.24125624 0.60674953 -0.44742265 0 0 0 1.0239622e-37
-0.25677633 0.5671258 -0.54208428 0 0 0 1.0239622e-37
-0.21449637 0.67138529 -1.2839462 0 0 0 1.0239622e-37
-0.22885394 0.5828495 -0.2484879 0 0 0 1.0239622e-37
-0.19006324 0.67991543 -0.35360852 0 0 0 1.0239622e-37
-0.21558714 0.61587429 -0.44886026 0 0 0 1.0239622e-37
-0.23347354 0.5707345 -0.54325253 0 0 0 1.0239622e-37
-0.18728638 0.68367195 -1.2888179 0 0 0 1.0239622e-37
-0.21187353 0.5782032 -0.2485771 0 0 0 1.0239622e-37
-0.1832068 0.64921808 -0.35199046 0 0 0 1.0239622e-37
-0.19404125 0.62228012 -0.44997844 0 0 0 1.0239622e-37
-0.20984888 0.58271646 -0.54519969 0 0 0 1.0239622e-37
-0.16927886 0.68065977 -1.2897037 0 0 0 1.0239622e-37
-0.18919063 0.57980824 -0.24902306 0 0 0 1.0239622e-37
-0.15726066 0.6581049 -0.35311064 0 0 0 1.0239622e-37
-0.18321586 0.59424877 -0.44822133 0 0 0 1.0239622e-37
-0.184165 0.59165478 -0.54695213 0 0 0 1.0239622e-37
-0.15512562 0.66020632 -1.2866035 0 0 0 1.0239622e-37
-0.15704489 0.61200428 -0.2508961 0 0 0 1.0239622e-37
-0.12715578 0.68462324 -0.35535103 0 0 0 1.0239622e-37
-0.1419816 0.64847422 -0.45349264 0 0 0 1.0239622e-37
-0.15506196 0.61632204 -0.55026227 0 0 0 1.0239622e-37
-0.13864827 0.65347481 -1.2866035 0 0 0 1.0239622e-37
-0.13876486 0.60230732 -0.2508069 0 0 0 1.0239622e-37
-0.1002028 0.69510221 -0.3565957 0 0 0 1.0239622e-37
-0.1266191 0.6313591 -0.45269394 0 0 0 1.0239622e-37
-0.13828731 0.60294724 -0.54967809 0 0 0 1.0239622e-37
-0.11870432 0.64735746 -1.2870463 0 0 0 1.0239622e-37
-0.0561831 0.74596119 -0.36057863 0 0 0 1.0239622e-37
-0.092873812 0.65833521 -0.45572895 0 0 0 1.0239622e-37
0.31352639 -0.12559557 -0.47434974 0 0 0 1.0239622e-37
-0.11004996 0.61705923 -0.55201471 0 0 0 1.0239622e-37
-0.10028362 0.63756609 -1.2866035 0 0 0 1.0239622e-37
-0.33299804 0.66533661 -0.15081191 0 0 0 1.0239622e-37
-0.033536911 0.74509287 -0.36107647 0 0 0 1.0239622e-37
0.32863069 -0.13726473 -0.38274238 0 0 0 1.0239622e-37
-0.068222284 0.6631012 -0.4568471 0 0 0 1.0239622e-37
0.33087468 -0.13345003 -0.4745326 0 0 0 1.0239622e-37
-0.085557938 0.62186813 -0.55337769 0 0 0 1.0239622e-37
0.14516068 0.52900934 -0.88811111 0 0 0 1.0239622e-37
-0.077344179 0.63848734 -1.2888179 0 0 0 1.0239622e-37
-0.32142949 0.64606428 -0.15043542 0 0 0 1.0239622e-37
0.24900198 -0.30365276 -0.28113219 0 0 0 1.0239622e-37
-0.015226603 0.74165058 -0.36132541 0 0 0 1.0239622e-37
0.33955026 -0.15066004 -0.38229889 0 0 0 1.0239622e-37
-0.047823906 0.66526461 -0.4576458 0 0 0 1.0239622e-37
0.3550086 -0.12457037 -0.47636124 0 0 0 1.0239622e-37
-0.062169552 0.63139486 -0.55513012 0 0 0 1.0239622e-37
-0.057871819 0.6386857 -1.2905895 0 0 0 1.0239622e-37
-0.30936408 0.62012768 -0.14989758 0 0 0 1.0239622e-37
0.21859956 -0.39012337 -0.27605963 0 0 0 1.0239622e-37
0.28623343 -0.27675629 -0.37224618 0 0 0 1.0239622e-37
-0.012800217 0.69362736 -0.46084052 0 0 0 1.0239622e-37
0.36317849 -0.14797115 -0.47489831 0 0 0 1.0239622e-37
0.0097420216 0.74566364 -0.56817597 0 0 0 1.0239622e-37
-0.041047096 0.62509823 -1.2892609 0 0 0 1.0239622e-37
-0.29587734 0.60641479 -0.14968243 0 0 0 1.0239622e-37
0.24832392 -0.37052393 -0.19064474 0 0 0 1.0239622e-37
0.22456837 -0.41000032 -0.27527058 0 0 0 1.0239622e-37
0.24320507 -0.37886381 -0.3641153 0 0 0 1.0239622e-37
0.020475388 0.72484207 -0.46419501 0 0 0 1.0239622e-37
0.26929355 -0.33550835 -0.45569757 0 0 0 1.0239622e-37
0.032043219 0.75119114 -0.56953895 0 0 0 1.0239622e-37
-0.24943995 0.6697154 -0.051776908 0 0 0 1.0239622e-37
-0.27468228 0.60466385 -0.1498438 0 0 0 1.0239622e-37
0.24199414 -0.41573429 -0.18901928 0 0 0 1.0239622e-37
0.24193645 -0.41582918 -0.27549601 0 0 0 1.0239622e-37
0.24930406 -0.40352201 -0.36278477 0 0 0 1.0239622e-37
0.2187438 -0.45388985 -0.44399425 0 0 0 1.0239622e-37
0.055599213 0.75175858 -0.57051253 0 0 0 1.0239622e-37
-0.23383427 0.65289354 -0.051685106 0 0 0 1.0239622e-37
-0.26296425 0.57863188 -0.14930594 0 0 0 1.0239622e-37
0.24162507 -0.45061302 -0.18785822 0 0 0 1.0239622e-37
0.24262238 -0.44898272 -0.27391788 0 0 0 1.0239622e-37
0.25733829 -0.42476559 -0.36174995 0 0 0 1.0239622e-37
0.22452545 -0.47840166 -0.44234848 0 0 0 1.0239622e-37
-0.22326875 0.63153315 -0.051538222 0 0 0 1.0239622e-37
-0.24306297 0.58153391 -0.14957488 0 0 0 1.0239622e-37
0.24727249 -0.47049618 -0.1873164 0 0 0 1.0239622e-37
0.2618978 -0.44675827 -0.27459422 0 0 0 1.0239622e-37
0.27668238 -0.42259932 -0.36263695 0 0 0 1.0239622e-37
0.22175384 -0.51175499 -0.43960553 0 0 0 1.0239622e-37
-0.18632054 0.66848755 -0.051978875 0 0 0 1.0239622e-37
-0.22561455 0.57028532 -0.1494673 0 0 0 1.0239622e-37
0.25496531 -0.49170542 -0.18677457 0 0 0 1.0239622e-37
0.26336193 -0.47818851 -0.27312884 0 0 0 1.0239622e-37
0.29087996 -0.43372774 -0.3624891 0 0 0 1.0239622e-37
0.20725274 -0.56835794 -0.43448532 0 0 0 1.0239622e-37
-0.19622874 0.58863401 -0.15022029 0 0 0 1.0239622e-37
0.27420521 -0.49428415 -0.18708418 0 0 0 1.0239622e-37
0.2921865 -0.46557283 -0.27459422 0 0 0 1.0239622e-37
0.30397177 -0.44659424 -0.36219344 0 0 0 1.0239622e-37
0.21774054 -0.58428812 -0.43375388 0 0 0 1.0239622e-37
-0.17091179 0.60424519 -0.1508657 0 0 0 1.0239622e-37
0.28492165 -0.50573969 -0.18692937 0 0 0 1.0239622e-37
0.2848866 -0.50579548 -0.27245247 0 0 0 1.0239622e-37
0.3042028 -0.47500753 -0.36041945 0 0 0 1.0239622e-37
0.22393227 -0.60229278 -0.43265668 0 0 0 1.0239622e-37
0.30737257 -0.50339794 -0.18747121 0 0 0 1.0239622e-37
0.30090308 -0.51357365 -0.27256522 0 0 0 1.0239622e-37
0.3106997 -0.49800777 -0.35923678 0 0 0 1.0239622e-37
0.23211265 -0.6216166 -0.4315595 0 0 0 1.0239622e-37
0.33095384 -0.49948359 -0.18809043 0 0 0 1.0239622e-37
0.31905198 -0.51805258 -0.27290338 0 0 0 1.0239622e-37
0.33751202 -0.48909426 -0.36086294 0 0 0 1.0239622e-37
0.24663353 -0.63088584 -0.4315595 0 0 0 1.0239622e-37
0.33511591 -0.52117014 -0.18747121 0 0 0 1.0239622e-37
0.3372395 -0.51787949 -0.273467 0 0 0 1.0239622e-37
0.3449688 -0.50574732 -0.36012378 0 0 0 1.0239622e-37
0.33564401 -0.10082626 -0.44706658 0 0 0 1.0239622e-37
0.25041342 -0.65226054 -0.4300966 0 0 0 1.0239622e-37
0.16716719 -0.38879347 -0.67657119 0 0 0 1.0239622e-37
0.36090279 -0.51406574 -0.18824524 0 0 0 1.0239622e-37
0.37609696 -0.49071217 -0.27594692 0 0 0 1.0239622e-37
0.37405324 -0.49369669 -0.36204562 0 0 0 1.0239622e-37
0.35207295 -0.1104784 -0.44706658 0 0 0 1.0239622e-37
0.29414606 -0.61652231 -0.43503392 0 0 0 1.0239622e-37
0.17200232 -0.41569042 -0.58804339 0 0 0 1.0239622e-37
0.1674428 -0.42341852 -0.67243904 0 0 0 1.0239622e-37
0.39225698 -0.49874067 -0.18940629 0 0 0 1.0239622e-37
0.3988862 -0.48847628 -0.36337611 0 0 0 1.0239622e-37
0.35114646 -0.14930344 -0.44415352 0 0 0 1.0239622e-37
0.30540872 -0.6310153 -0.43448532 0 0 0 1.0239622e-37
0.37421966 -0.11052084 -0.54024601 0 0 0 1.0239622e-37
0.16190004 -0.46739817 -0.58201838 0 0 0 1.0239622e-37
0.17762637 -0.44096422 -0.67106164 0 0 0 1.0239622e-37
0.4414258 -0.45200348 -0.36736766 0 0 0 1.0239622e-37
0.37736845 -0.13711023 -0.44620979 0 0 0 1.0239622e-37
0.33099627 -0.61924362 -0.43667969 0 0 0 1.0239622e-37
0.20422339 -0.42607117 -0.50311571 0 0 0 1.0239622e-37
0.17789483 -0.47001076 -0.58274138 0 0 0 1.0239622e-37
0.17435193 -0.47592354 -0.66665399 0 0 0 1.0239622e-37
0.38542056 -0.16055965 -0.44483894 0 0 0 1.0239622e-37
0.37200952 -0.58908439 -0.44106844 0 0 0 1.0239622e-37
0.19888616 -0.46929359 -0.49899009 0 0 0 1.0239622e-37
0.17141056 -0.5147686 -0.57768035 0 0 0 1.0239622e-37
0.18735838 -0.48837328 -0.66610307 0 0 0 1.0239622e-37
0.26582217 -0.39332056 -0.42239138 0 0 0 1.0239622e-37
0.44878507 -0.506248 -0.45130885 0 0 0 1.0239622e-37
0.20051098 -0.50052786 -0.49630848 0 0 0 1.0239622e-37
0.1883893 -0.52042532 -0.57816231 0 0 0 1.0239622e-37
0.20236778 -0.49747944 -0.66610307 0 0 0 1.0239622e-37
0.23313785 -0.47610188 -0.41485173 0 0 0 1.0239622e-37
0.20397711 -0.52363205 -0.49445194 0 0 0 1.0239622e-37
0.17416096 -0.57223034 -0.57189631 0 0 0 1.0239622e-37
0.21002698 -0.51377106 -0.66472566 0 0 0 1.0239622e-37
0.25972295 -0.46673489 -0.41673663 0 0 0 1.0239622e-37
0.20525265 -0.5547924 -0.49177033 0 0 0 1.0239622e-37
0.19304109 -0.57453346 -0.5728603 0 0 0 1.0239622e-37
0.17283821 -0.60719395 -0.6509518 0 0 0 1.0239622e-37
0.27270246 -0.4794879 -0.41639394 0 0 0 1.0239622e-37
0.21686053 -0.56902742 -0.49115148 0 0 0 1.0239622e-37
0.19617772 -0.60219121 -0.57020926 0 0 0 1.0239622e-37
0.18217087 -0.62465048 -0.64957446 0 0 0 1.0239622e-37
0.25486398 -0.53649473 -0.41142461 0 0 0 1.0239622e-37
0.20090795 -0.62240767 -0.48558193 0 0 0 1.0239622e-37
0.19918418 -0.62515259 -0.56804025 0 0 0 1.0239622e-37
0.18618178 -0.6458559 -0.64737064 0 0 0 1.0239622e-37
-0.28335738 -0.67064714 -1.2301927 0 0 0 1.0239622e-37
0.25477338 -0.56941795 -0.40902564 0 0 0 1.0239622e-37
0.21861887 -0.62652016 -0.48620078 0 0 0 1.0239622e-37
0.20519567 -0.64772081 -0.56611228 0 0 0 1.0239622e-37
0.20485306 -0.64826202 -0.64847255 0 0 0 1.0239622e-37
-0.25663233 -0.65407038 -1.23773 0 0 0 1.0239622e-37
0.27377391 -0.572052 -0.40971106 0 0 0 1.0239622e-37
0.23419213 -0.63406324 -0.48640704 0 0 0 1.0239622e-37
0.22709846 -0.64517641 -0.56779927 0 0 0 1.0239622e-37
0.21714473 -0.66077089 -0.64792156 0 0 0 1.0239622e-37
0.14564252 -0.37631607 -0.93406177 0 0 0 1.0239622e-37
-0.25291395 -0.68204331 -1.2312695 0 0 0 1.0239622e-37
0.27668142 -0.59521127 -0.40816885 0 0 0 1.0239622e-37
0.23692131 -0.65707302 -0.48455054 0 0 0 1.0239622e-37
0.22981191 -0.66813421 -0.56563026 0 0 0 1.0239622e-37
0.2273283 -0.6719985 -0.64737064 0 0 0 1.0239622e-37
0.16647983 -0.37073851 -0.76486558 0 0 0 1.0239622e-37
0.15164804 -0.39637423 -0.84581691 0 0 0 1.0239622e-37
0.12426472 -0.44339132 -0.92086345 0 0 0 1.0239622e-37
-0.24513268 -0.69698691 -1.2285776 0 0 0 1.0239622e-37
0.30213404 -0.58792114 -0.40988243 0 0 0 1.0239622e-37
0.25563908 -0.65968156 -0.48537564 0 0 0 1.0239622e-37
0.25495815 -0.66073251 -0.56804025 0 0 0 1.0239622e-37
0.24597311 -0.67459989 -0.64847255 0 0 0 1.0239622e-37
0.15190172 -0.43088245 -0.75557572 0 0 0 1.0239622e-37
0.15003181 -0.43423223 -0.83997661 0 0 0 1.0239622e-37
0.11755586 -0.48952627 -0.91256738 0 0 0 1.0239622e-37
0.18778539 -0.37012053 -1.0252304 0 0 0 1.0239622e-37
-0.22005868 -0.68408442 -1.2350382 0 0 0 1.0239622e-37
0.3142128 -0.19114876 -0.34890944 0 0 0 1.0239622e-37
0.32113647 -0.59077406 -0.41056785 0 0 0 1.0239622e-37
0.27219582 -0.66570592 -0.4857882 0 0 0 1.0239622e-37
0.25630713 -0.69003272 -0.56514823 0 0 0 1.0239622e-37
0.25380039 -0.69387102 -0.64681965 0 0 0 1.0239622e-37
0.16510844 -0.44325924 -0.75495636 0 0 0 1.0239622e-37
0.15218759 -0.46524 -0.83551049 0 0 0 1.0239622e-37
0.1245544 -0.51189613 -0.90955067 0 0 0 1.0239622e-37
0.17130685 -0.43312407 -1.0121022 0 0 0 1.0239622e-37
-0.21030569 -0.70018864 -1.2323462 0 0 0 1.0239622e-37
0.21923304 -0.38173008 -0.24759489 0 0 0 1.0239622e-37
0.22477841 -0.37243223 -0.33514926 0 0 0 1.0239622e-37
0.33915591 -0.5906713 -0.41142461 0 0 0 1.0239622e-37
0.29215717 -0.6621387 -0.48723218 0 0 0 1.0239622e-37
0.27726793 -0.68477941 -0.56707627 0 0 0 1.0239622e-37
0.29105616 -0.66381311 -0.65315562 0 0 0 1.0239622e-37
0.16698337 -0.46965742 -0.75155008 0 0 0 1.0239622e-37
0.14796853 -0.50169706 -0.82967013 0 0 0 1.0239622e-37
0.12627983 -0.5380559 -0.9054026 0 0 0 1.0239622e-37
0.1422286 -0.51148081 -0.99487144 0 0 0 1.0239622e-37
0.22845626 -0.40122414 -0.24698903 0 0 0 1.0239622e-37
0.22890043 -0.40048552 -0.33365062 0 0 0 1.0239622e-37
0.37470818 -0.56877661 -0.41468036 0 0 0 1.0239622e-37
0.31312394 -0.66167903 -0.48846984 0 0 0 1.0239622e-37
0.33872747 -0.62305498 -0.57743931 0 0 0 1.0239622e-37
0.33169007 -0.63367152 -0.65976709 0 0 0 1.0239622e-37
0.17798805 -0.48546219 -0.75031143 0 0 0 1.0239622e-37
0.15988278 -0.51572418 -0.82863951 0 0 0 1.0239622e-37
0.14313245 -0.54357147 -0.90615678 0 0 0 1.0239622e-37
0.14908195 -0.53384066 -0.99158943 0 0 0 1.0239622e-37
0.24669123 -0.40568924 -0.16055405 0 0 0 1.0239622e-37
0.23239183 -0.42926884 -0.24587828 0 0 0 1.0239622e-37
0.24630117 -0.40633249 -0.3339231 0 0 0 1.0239622e-37
0.40492034 -0.55537367 -0.41707936 0 0 0 1.0239622e-37
0.32639241 -0.67289925 -0.48826358 0 0 0 1.0239622e-37
0.33779979 -0.65582681 -0.57406533 0 0 0 1.0239622e-37
0.36817694 -0.61036396 -0.66527665 0 0 0 1.0239622e-37
0.18583584 -0.50636005 -0.74814379 0 0 0 1.0239622e-37
0.16866183 -0.53483725 -0.8265782 0 0 0 1.0239622e-37
0.15386581 -0.55923271 -0.90464842 0 0 0 1.0239622e-37
0.16087961 -0.54782724 -0.99035865 0 0 0 1.0239622e-37
0.26085997 -0.41197205 -0.16061966 0 0 0 1.0239622e-37
0.24752688 -0.43380308 -0.24608023 0 0 0 1.0239622e-37
0.25630593 -0.41942883 -0.33351439 0 0 0 1.0239622e-37
0.45539284 -0.50764513 -0.42290545 0 0 0 1.0239622e-37
0.3675499 -0.63822174 -0.49362683 0 0 0 1.0239622e-37
0.37452126 -0.62785888 -0.57936734 0 0 0 1.0239622e-37
0.40830326 -0.57764292 -0.67216355 0 0 0 1.0239622e-37
0.19040728 -0.52764702 -0.7456665 0 0 0 1.0239622e-37
0.17316723 -0.5560317 -0.82382983 0 0 0 1.0239622e-37
0.16446304 -0.57028151 -0.90389425 0 0 0 1.0239622e-37
0.17356038 -0.55554581 -0.99035865 0 0 0 1.0239622e-37
0.24156094 -0.4775176 -0.15845445 0 0 0 1.0239622e-37
0.24597836 -0.47034359 -0.24446461 0 0 0 1.0239622e-37
0.26633644 -0.43728352 -0.33283317 0 0 0 1.0239622e-37
0.43336558 -0.57224798 -0.50311571 0 0 0 1.0239622e-37
0.42467451 -0.58506536 -0.58707941 0 0 0 1.0239622e-37
0.20630908 -0.53508186 -0.74597615 0 0 0 1.0239622e-37
0.18896198 -0.5634079 -0.82417339 0 0 0 1.0239622e-37
0.17505264 -0.58599329 -0.90238589 0 0 0 1.0239622e-37
0.17497945 -0.58626842 -0.98502529 0 0 0 1.0239622e-37
0.26394343 -0.47020054 -0.15904495 0 0 0 1.0239622e-37
0.27363968 -0.45456457 -0.24587828 0 0 0 1.0239622e-37
0.2898798 -0.4283762 -0.33419558 0 0 0 1.0239622e-37
0.20965719 -0.55805588 -0.74318922 0 0 0 1.0239622e-37
0.19536304 -0.58126068 -0.82211208 0 0 0 1.0239622e-37
0.18347263 -0.60043263 -0.90087748 0 0 0 1.0239622e-37
0.18753934 -0.59403133 -0.98502529 0 0 0 1.0239622e-37
0.26524305 -0.50162172 -0.15819199 0 0 0 1.0239622e-37
0.26441789 -0.50294161 -0.24355581 0 0 0 1.0239622e-37
0.29558849 -0.45308542 -0.33296943 0 0 0 1.0239622e-37
0.23174381 -0.55551577 -0.74535686 0 0 0 1.0239622e-37
0.20898747 -0.59206629 -0.82176852 0 0 0 1.0239622e-37
0.20848465 -0.59287024 -0.90464842 0 0 0 1.0239622e-37
0.1398921 -0.70271969 -0.96040994 0 0 0 1.0239622e-37
0.28873086 -0.49748516 -0.15871689 0 0 0 1.0239622e-37
0.29215479 -0.49205256 -0.24476755 0 0 0 1.0239622e-37
0.31817436 -0.45077276 -0.3339231 0 0 0 1.0239622e-37
0.23280954 -0.58651352 -0.74133122 0 0 0 1.0239622e-37
0.18894386 -0.65625334 -0.81043142 0 0 0 1.0239622e-37
0.14979172 -0.7183609 -0.87825185 0 0 0 1.0239622e-37
0.13010669 -0.74973583 -0.95097405 0 0 0 1.0239622e-37
0.29941797 -0.51371098 -0.15845445 0 0 0 1.0239622e-37
0.30715013 -0.50154305 -0.24476755 0 0 0 1.0239622e-37
0.33011055 -0.46541071 -0.33351439 0 0 0 1.0239622e-37
0.18281245 -0.69751096 -0.72244185 0 0 0 1.0239622e-37
0.16423655 -0.72689056 -0.79772013 0 0 0 1.0239622e-37
0.15553045 -0.74058938 -0.87523508 0 0 0 1.0239622e-37
0.15150857 -0.74706602 -0.9538458 0 0 0 1.0239622e-37
0.32082415 -0.5083952 -0.15897934 0 0 0 1.0239622e-37
0.3156693 -0.51645136 -0.24436364 0 0 0 1.0239622e-37
0.33552098 -0.48542643 -0.33256072 0 0 0 1.0239622e-37
0.19289279 -0.70862627 -0.7218225 0 0 0 1.0239622e-37
0.17741656 -0.73295927 -0.79806364 0 0 0 1.0239622e-37
0.17713404 -0.73340082 -0.87862897 0 0 0 1.0239622e-37
0.16778398 -0.74815917 -0.95548683 0 0 0 1.0239622e-37
0.35417962 -0.48943424 -0.16009475 0 0 0 1.0239622e-37
0.33165765 -0.52434921 -0.24446461 0 0 0 1.0239622e-37
0.35486698 -0.48836851 -0.33310565 0 0 0 1.0239622e-37
0.32729912 -0.11150551 -0.41547528 0 0 0 1.0239622e-37
0.33936572 -0.091043949 -0.50956702 0 0 0 1.0239622e-37
0.20602393 -0.71941161 -0.72151285 0 0 0 1.0239622e-37
0.18298507 -0.75527239 -0.79531527 0 0 0 1.0239622e-37
0.17740369 -0.76392412 -0.87372673 0 0 0 1.0239622e-37
0.2741642 -0.61408854 -0.99117917 0 0 0 1.0239622e-37
0.37575316 -0.48434925 -0.16061966 0 0 0 1.0239622e-37
0.35637951 -0.5141778 -0.24557535 0 0 0 1.0239622e-37
0.3742547 -0.48665667 -0.3339231 0 0 0 1.0239622e-37
0.32617664 -0.14551783 -0.41307923 0 0 0 1.0239622e-37
0.35954046 -0.089034081 -0.51073527 0 0 0 1.0239622e-37
0.22139454 -0.72230029 -0.72244185 0 0 0 1.0239622e-37
0.21111321 -0.73827529 -0.8004685 0 0 0 1.0239622e-37
0.27179098 -0.6448648 -0.90276295 0 0 0 1.0239622e-37
0.29410052 -0.610672 -0.99405092 0 0 0 1.0239622e-37
0.37895226 -0.5122056 -0.24628219 0 0 0 1.0239622e-37
0.39364123 -0.48977041 -0.33446807 0 0 0 1.0239622e-37
0.34549546 -0.14999247 -0.41355845 0 0 0 1.0239622e-37
0.36381745 -0.11931229 -0.50839871 0 0 0 1.0239622e-37
0.24312305 -0.71995831 -0.72460949 0 0 0 1.0239622e-37
0.26406288 -0.6881268 -0.81283629 0 0 0 1.0239622e-37
0.29268217 -0.64442015 -0.90502554 0 0 0 1.0239622e-37
0.30973363 -0.61853099 -0.99446118 0 0 0 1.0239622e-37
0.2371738 -0.36757278 -0.21958981 0 0 0 1.0239622e-37
0.23588634 -0.36989021 -0.30656028 0 0 0 1.0239622e-37
0.36686468 -0.15112829 -0.41435713 0 0 0 1.0239622e-37
0.30962372 -0.24690485 -0.49496344 0 0 0 1.0239622e-37
0.3247664 -0.62702513 -0.74380857 0 0 0 1.0239622e-37
0.33586454 -0.61036134 -0.83104432 0 0 0 1.0239622e-37
0.31793904 -0.63751912 -0.90879649 0 0 0 1.0239622e-37
0.32857871 -0.62155032 -0.99610221 0 0 0 1.0239622e-37
0.18584561 -0.45543337 -1.0939451 0 0 0 1.0239622e-37
0.22565937 -0.41659689 -0.21744922 0 0 0 1.0239622e-37
0.22851038 -0.41203308 -0.30407095 0 0 0 1.0239622e-37
0.37976122 -0.16120291 -0.41419739 0 0 0 1.0239622e-37
0.22045994 -0.42554808 -0.475492 0 0 0 1.0239622e-37
0.36125684 -0.5990541 -0.75062114 0 0 0 1.0239622e-37
0.36034393 -0.60057878 -0.83482337 0 0 0 1.0239622e-37
0.34664416 -0.62119317 -0.91445285 0 0 0 1.0239622e-37
0.35186172 -0.61349249 -1.0002048 0 0 0 1.0239622e-37
0.16053224 -0.52669001 -1.0771152 0 0 0 1.0239622e-37
0.1591301 -0.52933455 -1.1594934 0 0 0 1.0239622e-37
0.24923539 -0.41218615 -0.21816276 0 0 0 1.0239622e-37
0.2520957 -0.40764618 -0.30506667 0 0 0 1.0239622e-37
0.41150427 -0.1454649 -0.41659343 0 0 0 1.0239622e-37
0.20260739 -0.48920107 -0.46926117 0 0 0 1.0239622e-37
0.40774894 -0.56119013 -0.75960129 0 0 0 1.0239622e-37
0.37932706 -0.60377049 -0.83619756 0 0 0 1.0239622e-37
0.36772466 -0.62109113 -0.91671544 0 0 0 1.0239622e-37
0.40889978 -0.55977583 -1.0162048 0 0 0 1.0239622e-37
0.16121125 -0.55902576 -1.0709147 0 0 0 1.0239622e-37
0.16086364 -0.55991364 -1.1533159 0 0 0 1.0239622e-37
0.16799426 -0.54866886 -1.2392136 0 0 0 1.0239622e-37
0.24572778 -0.45218086 -0.21655731 0 0 0 1.0239622e-37
0.25905442 -0.43060446 -0.30407095 0 0 0 1.0239622e-37
0.24959469 -0.44603491 -0.38927847 0 0 0 1.0239622e-37
0.19992781 -0.52721167 -0.46595103 0 0 0 1.0239622e-37
0.43470621 -0.5531621 -0.8489089 0 0 0 1.0239622e-37
0.43720126 -0.54946661 -0.93557012 0 0 0 1.0239622e-37
0.17902112 -0.56304789 -1.0722433 0 0 0 1.0239622e-37
0.17357969 -0.57223415 -1.1523654 0 0 0 1.0239622e-37
0.17974806 -0.56265116 -1.2376924 0 0 0 1.0239622e-37
0.25136161 -0.47206736 -0.21593297 0 0 0 1.0239622e-37
0.27524877 -0.43353653 -0.30444434 0 0 0 1.0239622e-37
0.24793291 -0.47778177 -0.38704214 0 0 0 1.0239622e-37
0.20326185 -0.55029631 -0.46419859 0 0 0 1.0239622e-37
0.17935514 -0.59073544 -1.0669286 0 0 0 1.0239622e-37
0.16780639 -0.60974336 -1.1438118 0 0 0 1.0239622e-37
0.18221402 -0.58688784 -1.2326219 0 0 0 1.0239622e-37
0.26854205 -0.4780159 -0.21611135 0 0 0 1.0239622e-37
0.28623939 -0.44974375 -0.3039465 0 0 0 1.0239622e-37
0.28510427 -0.45156717 -0.39039662 0 0 0 1.0239622e-37
0.20752549 -0.57635927 -0.46225145 0 0 0 1.0239622e-37
0.18883467 -0.60808945 -1.0647142 0 0 0 1.0239622e-37
0.14026356 -0.68638897 -1.1243285 0 0 0 1.0239622e-37
0.18765688 -0.61075401 -1.2280586 0 0 0 1.0239622e-37
0.27934098 -0.49418926 -0.21575458 0 0 0 1.0239622e-37
0.30138993 -0.45921278 -0.3039465 0 0 0 1.0239622e-37
0.29389 -0.47116423 -0.38943821 0 0 0 1.0239622e-37
0.21057367 -0.60408449 -0.46010959 0 0 0 1.0239622e-37
0.13288617 -0.72952151 -1.0345975 0 0 0 1.0239622e-37
0.19896889 -0.62457371 -1.1447623 0 0 0 1.0239622e-37
0.20941997 -0.60839176 -1.2316079 0 0 0 1.0239622e-37
0.30072808 -0.48876762 -0.21646811 0 0 0 1.0239622e-37
0.31434846 -0.46737289 -0.3039465 0 0 0 1.0239622e-37
0.29722595 -0.49446869 -0.38800058 0 0 0 1.0239622e-37
0.22626734 -0.60691094 -0.46069375 0 0 0 1.0239622e-37
0.14082742 -0.74374509 -1.0328259 0 0 0 1.0239622e-37
0.20933199 -0.63569546 -1.1438118 0 0 0 1.0239622e-37
0.22294402 -0.61462712 -1.2321149 0 0 0 1.0239622e-37
0.29426551 -0.53199196 -0.21468428 0 0 0 1.0239622e-37
0.32836151 -0.47862816 -0.30382204 0 0 0 1.0239622e-37
0.2886467 -0.54096794 -0.38448635 0 0 0 1.0239622e-37
0.23228598 -0.62958884 -0.45913601 0 0 0 1.0239622e-37
0.15909433 -0.74610043 -1.0345975 0 0 0 1.0239622e-37
0.23737621 -0.62358451 -1.1499895 0 0 0 1.0239622e-37
0.25413036 -0.59776115 -1.2402276 0 0 0 1.0239622e-37
0.33070779 -0.50786638 -0.21646811 0 0 0 1.0239622e-37
0.34448457 -0.48657179 -0.3039465 0 0 0 1.0239622e-37
0.30130816 -0.55380011 -0.3841669 0 0 0 1.0239622e-37
0.25108051 -0.63215947 -0.45991489 0 0 0 1.0239622e-37
0.1731596 -0.7551012 -1.0345975 0 0 0 1.0239622e-37
0.25083971 -0.63450742 -1.1495142 0 0 0 1.0239622e-37
0.25514102 -0.62826943 -1.233636 0 0 0 1.0239622e-37
0.3413434 -0.51947403 -0.21628973 0 0 0 1.0239622e-37
0.35735679 -0.49486732 -0.3039465 0 0 0 1.0239622e-37
0.32479525 -0.54521894 -0.38576424 0 0 0 1.0239622e-37
0.27430511 -0.6234467 -0.46186203 0 0 0 1.0239622e-37
0.18201065 -0.76776981 -1.0332688 0 0 0 1.0239622e-37
0.27063513 -0.63109064 -1.1528406 0 0 0 1.0239622e-37
0.28228354 -0.61354423 -1.2407347 0 0 0 1.0239622e-37
0.36169338 -0.52077532 -0.21673569 0 0 0 1.0239622e-37
0.33741808 -0.55816889 -0.38544479 0 0 0 1.0239622e-37
0.27251339 -0.65788269 -0.45894131 0 0 0 1.0239622e-37
0.23967886 -0.7098763 -1.0514274 0 0 0 1.0239622e-37
0.29361176 -0.62748361 -1.1566423 0 0 0 1.0239622e-37
0.29789066 -0.62137723 -1.2412417 0 0 0 1.0239622e-37
0.39413834 -0.50380421 -0.21816276 0 0 0 1.0239622e-37
0.377352 -0.52950478 -0.38911873 0 0 0 1.0239622e-37
0.29892564 -0.6490016 -0.46108317 0 0 0 1.0239622e-37
0.30851817 -0.63605809 -1.0740149 0 0 0 1.0239622e-37
0.32411981 -0.6126287 -1.1637703 0 0 0 1.0239622e-37
0.31347489 -0.62927103 -1.2417487 0 0 0 1.0239622e-37
0.39888954 -0.52460241 -0.39039662 0 0 0 1.0239622e-37
0.3200748 -0.64387321 -0.46264088 0 0 0 1.0239622e-37
0.34137487 -0.61333966 -1.0824299 0 0 0 1.0239622e-37
0.35268188 -0.59656072 -1.1708983 0 0 0 1.0239622e-37
0.44805527 -0.48306704 -0.39534846 0 0 0 1.0239622e-37
0.35218453 -0.6269691 -0.4657563 0 0 0 1.0239622e-37
0.3699975 -0.6019187 -1.0881875 0 0 0 1.0239622e-37
0.37915516 -0.58849621 -1.1761255 0 0 0 1.0239622e-37
0.38889527 -0.60364008 -0.4696506 0 0 0 1.0239622e-37
0.25729966 -0.45098829 -0.13069649 0 0 0 1.0239622e-37
0.28081894 -0.44201803 -0.13123433 0 0 0 1.0239622e-37
0.28540087 -0.46842051 -0.13069649 0 0 0 1.0239622e-37
0.3047204 -0.46637869 -0.13101919 0 0 0 1.0239622e-37
0.33373547 -0.45396996 -0.1317184 0 0 0 1.0239622e-37
0.35641193 -0.45182419 -0.13209489 0 0 0 1.0239622e-37
0.3758893 -0.45007277 -0.13241759 0 0 0 1.0239622e-37
