# .PCD v0.7 - Point Cloud Data file format
VERSION 0.7
FIELDS x y z normal_x normal_y normal_z curvature
SIZE 4 4 4 4 4 4 4
TYPE F F F F F F F
COUNT 1 1 1 1 1 1 1
WIDTH 849
HEIGHT 1
VIEWPOINT 0 0 0 1 0 0 0
POINTS 849
DATA ascii
-0.12852168 0.054803252 -0.082899116 0 0 0 1.3081931e-37
-0.10043144 0.052938476 -0.12241762 0 0 0 1.3081931e-37
-0.11087322 0.053669393 -0.15995646 0 0 0 1.3081931e-37
-0.16567922 0.057306737 -0.19310459 0 0 0 1.3081931e-37
-0.082470179 0.14745128 -0.2262886 0 0 0 1.3081931e-37
-0.15027285 0.1489781 -0.25666648 0 0 0 1.3081931e-37
-0.20060277 0.15011145 -0.28704688 0 0 0 1.3081931e-37
-0.14500451 0.048093975 -0.082279891 0 0 0 1.3081931e-37
-0.11690784 0.046125323 -0.12151583 0 0 0 1.3081931e-37
-0.11936998 0.046335459 -0.15936512 0 0 0 1.3081931e-37
-0.061105251 0.13889055 -0.18951921 0 0 0 1.3081931e-37
-0.16819048 0.04975532 -0.19292173 0 0 0 1.3081931e-37
-0.1204493 0.14044453 -0.2223693 0 0 0 1.3081931e-37
-0.17824793 0.14195803 -0.25329247 0 0 0 1.3081931e-37
-0.21068811 0.14280751 -0.28566951 0 0 0 1.3081931e-37
-0.13551569 0.040707275 -0.082666904 0 0 0 1.3081931e-37
-0.12734866 0.040109247 -0.12095222 0 0 0 1.3081931e-37
-0.093992949 0.037704855 -0.16128697 0 0 0 1.3081931e-37
-0.079223394 0.13249534 -0.18797702 0 0 0 1.3081931e-37
-0.14482641 0.041426241 -0.1951161 0 0 0 1.3081931e-37
-0.14449787 0.13440984 -0.21989395 0 0 0 1.3081931e-37
-0.21018314 0.13633637 -0.24943644 0 0 0 1.3081931e-37
-0.21878767 0.13658874 -0.28456759 0 0 0 1.3081931e-37
-0.14407182 0.033519268 -0.082357295 0 0 0 1.3081931e-37
-0.13191843 0.032584533 -0.12072677 0 0 0 1.3081931e-37
-0.10652184 0.030669153 -0.16039996 0 0 0 1.3081931e-37
-0.1232872 0.12593319 -0.18420719 0 0 0 1.3081931e-37
-0.15136671 0.034117416 -0.1945675 0 0 0 1.3081931e-37
-0.17655206 0.12769085 -0.21659347 0 0 0 1.3081931e-37
-0.1985116 0.1284155 -0.25088245 0 0 0 1.3081931e-37
-0.25663853 0.1303336 -0.27933353 0 0 0 1.3081931e-37
-0.16659617 0.027515754 -0.08150585 0 0 0 1.3081931e-37
-0.15044713 0.026214153 -0.11971226 0 0 0 1.3081931e-37
-0.087263584 0.021159902 -0.1618783 0 0 0 1.3081931e-37
-0.11758661 0.11786772 -0.18472126 0 0 0 1.3081931e-37
-0.13013935 0.024614871 -0.19657901 0 0 0 1.3081931e-37
-0.17880654 0.12011254 -0.21638718 0 0 0 1.3081931e-37
-0.22853661 0.12193606 -0.24726743 0 0 0 1.3081931e-37
-0.24105787 0.1223952 -0.28153735 0 0 0 1.3081931e-37
-0.16912913 0.021093547 -0.081428453 0 0 0 1.3081931e-37
-0.14303327 0.018907711 -0.12016316 0 0 0 1.3081931e-37
-0.079874992 0.013655886 -0.16246964 0 0 0 1.3081931e-37
-0.12979102 0.11159991 -0.18369313 0 0 0 1.3081931e-37
-0.12672067 0.017578915 -0.19694474 0 0 0 1.3081931e-37
-0.20291018 0.11451112 -0.21391183 0 0 0 1.3081931e-37
-0.25457144 0.11656798 -0.24413441 0 0 0 1.3081931e-37
-0.26901221 0.11714294 -0.27768067 0 0 0 1.3081931e-37
-0.16978645 0.013415843 -0.081428453 0 0 0 1.3081931e-37
-0.15762329 0.012352139 -0.11937409 0 0 0 1.3081931e-37
-0.10639048 0.007909596 -0.16054779 0 0 0 1.3081931e-37
-0.14007068 0.10421027 -0.18283634 0 0 0 1.3081931e-37
-0.1273911 0.0097458065 -0.19694474 0 0 0 1.3081931e-37
-0.19527507 0.1066109 -0.21473695 0 0 0 1.3081931e-37
-0.25884533 0.10937532 -0.2436524 0 0 0 1.3081931e-37
-0.24754691 0.108884 -0.28071091 0 0 0 1.3081931e-37
-0.0092105865 0.1974469 -0.47261521 0 0 0 1.3081931e-37
-0.18639398 0.0071918666 -0.080809221 0 0 0 1.3081931e-37
-0.14638114 0.0035447925 -0.12005043 0 0 0 1.3081931e-37
-0.085247278 -0.0019890815 -0.16217397 0 0 0 1.3081931e-37
-0.14639473 0.096707113 -0.18232228 0 0 0 1.3081931e-37
-0.12213993 0.0013729632 -0.19749333 0 0 0 1.3081931e-37
-0.19561863 0.099028453 -0.21473695 0 0 0 1.3081931e-37
-0.25521183 0.1018388 -0.24413441 0 0 0 1.3081931e-37
-0.26964808 0.10251959 -0.27768067 0 0 0 1.3081931e-37
0.037674189 0.18910837 -0.36075643 0 0 0 1.3081931e-37
0.017347336 0.18913454 -0.39782941 0 0 0 1.3081931e-37
-0.0015523434 0.18919621 -0.43441224 0 0 0 1.3081931e-37
-0.015094995 0.18920116 -0.47138447 0 0 0 1.3081931e-37
-0.10517454 0.087964274 0.031393599 0 0 0 1.3081931e-37
-0.13138509 0.089282878 -0.044882096 0 0 0 1.3081931e-37
-0.19296813 0.001228109 -0.080577008 0 0 0 1.3081931e-37
-0.15693808 -0.0021701008 -0.11948682 0 0 0 1.3081931e-37
-0.12758207 -0.0049012601 -0.15906945 0 0 0 1.3081931e-37
-0.14870906 0.090154409 -0.18215093 0 0 0 1.3081931e-37
-0.12672949 -0.004981637 -0.19712761 0 0 0 1.3081931e-37
-0.22772455 0.094129503 -0.21143648 0 0 0 1.3081931e-37
-0.27138281 0.096325859 -0.24220639 0 0 0 1.3081931e-37
-0.26599658 0.096054889 -0.27823162 0 0 0 1.3081931e-37
0.0040500164 0.18209139 -0.35549217 0 0 0 1.3081931e-37
-0.024062157 0.18223186 -0.3906149 0 0 0 1.3081931e-37
-0.017299414 0.18218854 -0.4313955 0 0 0 1.3081931e-37
-0.03078866 0.18223596 -0.4681024 0 0 0 1.3081931e-37
-0.14951849 0.08242327 0.030754693 0 0 0 1.3081931e-37
-0.14531279 0.082196228 -0.0069627343 0 0 0 1.3081931e-37
-0.12779927 0.081250809 -0.044966146 0 0 0 1.3081931e-37
-0.17977524 -0.0077267289 -0.081118837 0 0 0 1.3081931e-37
-0.16165543 -0.0095027536 -0.11926137 0 0 0 1.3081931e-37
-0.13825989 -0.011758417 -0.15833028 0 0 0 1.3081931e-37
-0.14513373 0.08218658 -0.18249364 0 0 0 1.3081931e-37
-0.20030355 0.085164793 -0.2143244 0 0 0 1.3081931e-37
-0.26185083 0.08848732 -0.24341141 0 0 0 1.3081931e-37
-0.26835644 0.088838503 -0.27795616 0 0 0 1.3081931e-37
-0.049364567 0.17431417 -0.34713131 0 0 0 1.3081931e-37
-0.061563015 0.17439836 -0.38408747 0 0 0 1.3081931e-37
-0.060575962 0.17438842 -0.42309943 0 0 0 1.3081931e-37
-0.040643215 0.17414887 -0.46605113 0 0 0 1.3081931e-37
-0.15793705 0.075133733 0.030638527 0 0 0 1.3081931e-37
-0.15373302 0.074891336 -0.0069364845 0 0 0 1.3081931e-37
-0.10228515 0.071924888 -0.045512464 0 0 0 1.3081931e-37
-0.1865027 -0.014758497 -0.080886625 0 0 0 1.3081931e-37
-0.1604383 -0.017409712 -0.11937409 0 0 0 1.3081931e-37
-0.13705349 -0.019750834 -0.15847811 0 0 0 1.3081931e-37
-0.15949273 0.075223446 -0.18129414 0 0 0 1.3081931e-37
-0.21264195 0.078288004 -0.21308672 0 0 0 1.3081931e-37
-0.26027846 0.08103472 -0.2436524 0 0 0 1.3081931e-37
-0.28260839 0.082322247 -0.27602783 0 0 0 1.3081931e-37
-0.10082912 0.16690122 -0.3390801 0 0 0 1.3081931e-37
-0.11288142 0.16702901 -0.37515521 0 0 0 1.3081931e-37
-0.13137412 0.16728303 -0.40952405 0 0 0 1.3081931e-37
-0.14056182 0.16737217 -0.44512805 0 0 0 1.3081931e-37
-0.16431737 0.068881452 0.030551404 0 0 0 1.3081931e-37
-0.16211081 0.068747267 -0.0069102347 0 0 0 1.3081931e-37
-0.11466265 0.065861836 -0.045260318 0 0 0 1.3081931e-37
-0.19910264 -0.020033866 -0.080422208 0 0 0 1.3081931e-37
-0.18098021 -0.021934777 -0.11824686 0 0 0 1.3081931e-37
-0.14766192 -0.025392264 -0.15773894 0 0 0 1.3081931e-37
-0.14993954 0.068007097 -0.18215093 0 0 0 1.3081931e-37
-0.21302366 0.071843393 -0.21308672 0 0 0 1.3081931e-37
-0.26065135 0.074739739 -0.2436524 0 0 0 1.3081931e-37
-0.26320434 0.074894987 -0.27878258 0 0 0 1.3081931e-37
-0.16020107 0.16110423 -0.3297902 0 0 0 1.3081931e-37
-0.17799473 0.16136783 -0.36381808 0 0 0 1.3081931e-37
-0.17468119 0.16131191 -0.40122798 0 0 0 1.3081931e-37
-0.16219306 0.16106443 -0.44061524 0 0 0 1.3081931e-37
-0.15170527 0.060341313 0.068264514 0 0 0 1.3081931e-37
-0.1847558 0.06247282 0.030260991 0 0 0 1.3081931e-37
-0.17057681 0.061558396 -0.0068839849 0 0 0 1.3081931e-37
-0.12712884 0.058756337 -0.045008171 0 0 0 1.3081931e-37
-0.18202901 -0.02954334 -0.081118837 0 0 0 1.3081931e-37
-0.1698842 -0.030862272 -0.11892319 0 0 0 1.3081931e-37
-0.14452386 -0.033578947 -0.15803461 0 0 0 1.3081931e-37
-0.15440202 0.06051524 -0.18180822 0 0 0 1.3081931e-37
-0.2333467 0.065606534 -0.21102393 0 0 0 1.3081931e-37
-0.2829057 0.068802685 -0.2410014 0 0 0 1.3081931e-37
-0.28936243 0.069219097 -0.27520138 0 0 0 1.3081931e-37
-0.17417336 0.15367673 -0.32762259 0 0 0 1.3081931e-37
-0.20374584 0.15424782 -0.35935196 0 0 0 1.3081931e-37
-0.19642544 0.15409741 -0.39707994 0 0 0 1.3081931e-37
-0.18190813 0.15376279 -0.43651268 0 0 0 1.3081931e-37
-0.12828684 0.050967976 0.069038048 0 0 0 1.3081931e-37
-0.16331458 0.053355932 0.030580444 0 0 0 1.3081931e-37
-0.16909051 0.053749695 -0.0068905475 0 0 0 1.3081931e-37
-0.12365842 0.050652444 -0.045092218 0 0 0 1.3081931e-37
-0.17492771 -0.038065612 -0.081428453 0 0 0 1.3081931e-37
-0.15684128 -0.040096879 -0.11971226 0 0 0 1.3081931e-37
-0.15529203 -0.040233612 -0.15729544 0 0 0 1.3081931e-37
-0.14696264 0.052241176 -0.18249364 0 0 0 1.3081931e-37
-0.24376416 0.058840424 -0.20999253 0 0 0 1.3081931e-37
-0.2853682 0.061676711 -0.24076039 0 0 0 1.3081931e-37
-0.29181886 0.062116474 -0.27492592 0 0 0 1.3081931e-37
-0.21385074 0.14697248 -0.32142934 0 0 0 1.3081931e-37
-0.21967244 0.14707762 -0.35660356 0 0 0 1.3081931e-37
-0.21819401 0.14704183 -0.39293191 0 0 0 1.3081931e-37
-0.23100138 0.14731643 -0.42625627 0 0 0 1.3081931e-37
-0.14877295 0.044573069 0.068393439 0 0 0 1.3081931e-37
-0.18380022 0.047089994 0.030290032 0 0 0 1.3081931e-37
-0.16962814 0.046071634 -0.0068905475 0 0 0 1.3081931e-37
-0.15611839 0.045100868 -0.044419829 0 0 0 1.3081931e-37
-0.18969798 -0.044109374 -0.080886625 0 0 0 1.3081931e-37
-0.18350863 -0.044827476 -0.11824686 0 0 0 1.3081931e-37
-0.17004299 -0.046352774 -0.15626061 0 0 0 1.3081931e-37
-0.13558078 0.043625131 -0.18352176 0 0 0 1.3081931e-37
-0.22840881 0.050295398 -0.21164276 0 0 0 1.3081931e-37
-0.27003336 0.053286389 -0.2426884 0 0 0 1.3081931e-37
-0.28442156 0.054320276 -0.27602783 0 0 0 1.3081931e-37
-0.22984743 0.13989811 -0.31895205 0 0 0 1.3081931e-37
-0.23759317 0.14007853 -0.35351163 0 0 0 1.3081931e-37
-0.210536 0.13932416 -0.39444029 0 0 0 1.3081931e-37
-0.20380163 0.13910043 -0.43199986 0 0 0 1.3081931e-37
-0.10939384 0.034937337 0.069682665 0 0 0 1.3081931e-37
-0.20023346 0.041751668 0.030057702 0 0 0 1.3081931e-37
-0.17808867 0.040090486 -0.0068642977 0 0 0 1.3081931e-37
-0.15062284 0.038030118 -0.0445459 0 0 0 1.3081931e-37
-0.16466665 -0.053700775 -0.08189287 0 0 0 1.3081931e-37
-0.16444945 -0.053726643 -0.11937409 0 0 0 1.3081931e-37
-0.15497231 -0.054819047 -0.15744327 0 0 0 1.3081931e-37
-0.12812376 0.036342353 -0.18420719 0 0 0 1.3081931e-37
-0.23482966 0.044346884 -0.21102393 0 0 0 1.3081931e-37
-0.27841282 0.047616273 -0.2417244 0 0 0 1.3081931e-37
-0.28685367 0.048249468 -0.27575234 0 0 0 1.3081931e-37
-0.2181859 0.13313982 -0.32081002 0 0 0 1.3081931e-37
-0.23974991 0.13377309 -0.35316807 0 0 0 1.3081931e-37
-0.22643137 0.13335988 -0.39142355 0 0 0 1.3081931e-37
-0.22747064 0.13335654 -0.42707679 0 0 0 1.3081931e-37
-0.15982056 0.030961514 0.068071127 0 0 0 1.3081931e-37
-0.19682765 0.03387402 0.030115785 0 0 0 1.3081931e-37
-0.18864536 0.033230081 -0.0068314858 0 0 0 1.3081931e-37
-0.15719819 0.030755132 -0.044419829 0 0 0 1.3081931e-37
-0.19138432 -0.058224499 -0.080886625 0 0 0 1.3081931e-37
-0.17529058 -0.060202837 -0.11881047 0 0 0 1.3081931e-37
-0.090583801 0.12128385 -0.1485011 0 0 0 1.3081931e-37
-0.16778564 -0.061088264 -0.15655626 0 0 0 1.3081931e-37
-0.12077928 0.027888894 -0.18489261 0 0 0 1.3081931e-37
-0.24135089 0.037378088 -0.21040508 0 0 0 1.3081931e-37
-0.26511705 0.039248526 -0.24341141 0 0 0 1.3081931e-37
-0.28148615 0.040536791 -0.27657875 0 0 0 1.3081931e-37
-0.2677995 0.12735304 -0.31306845 0 0 0 1.3081931e-37
-0.24393201 0.1264901 -0.35248098 0 0 0 1.3081931e-37
-0.23452854 0.12616387 -0.38991517 0 0 0 1.3081931e-37
-0.23162866 0.12602773 -0.42625627 0 0 0 1.3081931e-37
-0.14051962 0.021608233 0.068715744 0 0 0 1.3081931e-37
-0.21138906 0.027447209 0.029912496 0 0 0 1.3081931e-37
-0.18128514 0.024966925 -0.0068577356 0 0 0 1.3081931e-37
-0.18372655 0.025168091 -0.043873511 0 0 0 1.3081931e-37
-0.17250562 -0.068331093 -0.081660658 0 0 0 1.3081931e-37
-0.18218875 -0.067104757 -0.11847231 0 0 0 1.3081931e-37
-0.12477064 0.1146162 -0.14618503 0 0 0 1.3081931e-37
-0.10155272 0.018397734 -0.18660617 0 0 0 1.3081931e-37
-0.21419144 0.027678087 -0.213293 0 0 0 1.3081931e-37
-0.29538798 0.034367934 -0.23979639 0 0 0 1.3081931e-37
-0.28601992 0.033596098 -0.27602783 0 0 0 1.3081931e-37
-0.26016879 0.11973342 -0.31430709 0 0 0 1.3081931e-37
-0.27570355 0.12029436 -0.34698421 0 0 0 1.3081931e-37
-0.24265099 0.11902634 -0.38840678 0 0 0 1.3081931e-37
-0.23972511 0.11887871 -0.42461523 0 0 0 1.3081931e-37
-0.19001293 0.019123763 0.030231949 0 0 0 1.3081931e-37
-0.17187095 0.017571643 -0.0068905475 0 0 0 1.3081931e-37
-0.17431402 0.017780647 -0.044083633 0 0 0 1.3081931e-37
-0.18127561 -0.073871762 -0.081351049 0 0 0 1.3081931e-37
-0.16520572 -0.075958341 -0.11948682 0 0 0 1.3081931e-37
-0.12105131 0.10773005 -0.14645749 0 0 0 1.3081931e-37
-0.11205029 0.012453705 -0.1857494 0 0 0 1.3081931e-37
-0.21869636 0.021577746 -0.21288043 0 0 0 1.3081931e-37
-0.27612531 0.026491061 -0.24220639 0 0 0 1.3081931e-37
-0.29443657 0.028057665 -0.27492592 0 0 0 1.3081931e-37
-0.27621365 0.11409322 -0.31182981 0 0 0 1.3081931e-37
-0.25823593 0.11331221 -0.35007614 0 0 0 1.3081931e-37
-0.25664186 0.11324603 -0.38576713 0 0 0 1.3081931e-37
-0.24193501 0.11260019 -0.42420498 0 0 0 1.3081931e-37
-0.20462036 0.012767017 0.030028662 0 0 0 1.3081931e-37
-0.18648577 0.011148527 -0.0068446104 0 0 0 1.3081931e-37
-0.16701674 0.0094109774 -0.044251729 0 0 0 1.3081931e-37
-0.17435718 -0.082562685 -0.081660658 0 0 0 1.3081931e-37
-0.18007326 -0.081799179 -0.11869775 0 0 0 1.3081931e-37
-0.1213913 0.099875554 -0.14645749 0 0 0 1.3081931e-37
-0.10480046 0.0038583279 -0.18643481 0 0 0 1.3081931e-37
-0.15396333 0.0082459897 -0.21968766 0 0 0 1.3081931e-37
-0.26291919 0.017970026 -0.24389341 0 0 0 1.3081931e-37
-0.25363255 0.017141223 -0.28071091 0 0 0 1.3081931e-37
-0.28837264 0.10734228 -0.30997184 0 0 0 1.3081931e-37
-0.28217375 0.10702765 -0.34595355 0 0 0 1.3081931e-37
-0.25696063 0.10588846 -0.38576713 0 0 0 1.3081931e-37
-0.23443437 0.10483517 -0.42584601 0 0 0 1.3081931e-37
-0.17033386 0.0019688308 0.067813285 0 0 0 1.3081931e-37
-0.18539596 0.0033687651 0.030319074 0 0 0 1.3081931e-37
-0.1891706 0.0037195981 -0.0068380483 0 0 0 1.3081931e-37
-0.13299584 0.0925707 -0.032215983 0 0 0 1.3081931e-37
-0.16572595 0.0015405715 -0.044293754 0 0 0 1.3081931e-37
-0.14371562 -0.09457013 -0.082899116 0 0 0 1.3081931e-37
-0.12574625 0.092216887 -0.14618503 0 0 0 1.3081931e-37
-0.1015532 -0.0044238567 -0.18677752 0 0 0 1.3081931e-37
-0.15466785 0.00051277876 -0.21968766 0 0 0 1.3081931e-37
-0.27940238 0.012106031 -0.2419654 0 0 0 1.3081931e-37
-0.28980756 0.013073117 -0.27575234 0 0 0 1.3081931e-37
-0.28081882 0.099715516 -0.31121048 0 0 0 1.3081931e-37
-0.30219448 0.10072514 -0.34251806 0 0 0 1.3081931e-37
-0.27496266 0.099394716 -0.38237327 0 0 0 1.3081931e-37
-0.26411152 0.098829575 -0.41969216 0 0 0 1.3081931e-37
-0.0018453598 0.18505108 -0.51375562 0 0 0 1.3081931e-37
-0.041767359 0.18517697 -0.54363137 0 0 0 1.3081931e-37
-0.056799412 0.18513851 -0.57853627 0 0 0 1.3081931e-37
-0.054923773 0.18505166 -0.61751908 0 0 0 1.3081931e-37
-0.18488407 -0.0032695979 0.067362055 0 0 0 1.3081931e-37
-0.19397569 -0.0023957938 0.030202908 0 0 0 1.3081931e-37
-0.18580532 -0.0031810701 -0.006851173 0 0 0 1.3081931e-37
-0.13932443 0.08618705 -0.032125406 0 0 0 1.3081931e-37
-0.176301 -0.004094556 -0.044083633 0 0 0 1.3081931e-37
-0.13224125 0.085819066 -0.07007426 0 0 0 1.3081931e-37
-0.1525569 -0.10011813 -0.0825895 0 0 0 1.3081931e-37
-0.093918324 0.083828084 -0.10986266 0 0 0 1.3081931e-37
-0.10815048 0.084567487 -0.14741118 0 0 0 1.3081931e-37
-0.096244812 -0.011788979 -0.18729159 0 0 0 1.3081931e-37
-0.10578895 -0.010871664 -0.22484465 0 0 0 1.3081931e-37
-0.26813388 0.0047317743 -0.24341141 0 0 0 1.3081931e-37
-0.2608161 0.0040284395 -0.27988449 0 0 0 1.3081931e-37
-0.2988919 0.094408229 -0.30842352 0 0 0 1.3081931e-37
-0.2906996 0.093947798 -0.34457937 0 0 0 1.3081931e-37
-0.28900814 0.093859829 -0.37973362 0 0 0 1.3081931e-37
-0.29570556 0.094173685 -0.41312805 0 0 0 1.3081931e-37
-0.011644125 0.17802404 -0.51154113 0 0 0 1.3081931e-37
-0.022387505 0.17803429 -0.54838341 0 0 0 1.3081931e-37
-0.033631086 0.17801049 -0.58462077 0 0 0 1.3081931e-37
-0.039561987 0.17798221 -0.62182605 0 0 0 1.3081931e-37
-0.16375065 -0.013073295 0.068071127 0 0 0 1.3081931e-37
-0.19073892 -0.010379493 0.030260991 0 0 0 1.3081931e-37
-0.18655133 -0.010797486 -0.006851173 0 0 0 1.3081931e-37
-0.13774657 0.0782886 -0.032155596 0 0 0 1.3081931e-37
-0.17506075 -0.011944383 -0.044125658 0 0 0 1.3081931e-37
-0.15860724 0.07944905 -0.069221295 0 0 0 1.3081931e-37
-0.1182785 0.077205613 -0.10865094 0 0 0 1.3081931e-37
-0.11853695 0.077219993 -0.14672998 0 0 0 1.3081931e-37
-0.09702301 -0.019733593 -0.18729159 0 0 0 1.3081931e-37
-0.074891806 -0.021942586 -0.22814512 0 0 0 1.3081931e-37
-0.22933817 -0.0065267831 -0.24823143 0 0 0 1.3081931e-37
-0.25562191 -0.0039033294 -0.28071091 0 0 0 1.3081931e-37
-0.28744256 0.086546756 -0.31028149 0 0 0 1.3081931e-37
-0.29502356 0.086934254 -0.34389228 0 0 0 1.3081931e-37
-0.29332006 0.086839415 -0.37897944 0 0 0 1.3081931e-37
-0.29609418 0.086959414 -0.41312805 0 0 0 1.3081931e-37
-0.013677359 0.16979128 -0.51109827 0 0 0 1.3081931e-37
-0.026355743 0.16986409 -0.54743302 0 0 0 1.3081931e-37
-0.035648584 0.16985832 -0.58411372 0 0 0 1.3081931e-37
-0.043497086 0.16987491 -0.62074929 0 0 0 1.3081931e-37
-0.16963077 -0.020242795 0.030580444 0 0 0 1.3081931e-37
-0.1634531 -0.020882294 -0.0069299219 0 0 0 1.3081931e-37
-0.11224294 0.06895642 -0.032548107 0 0 0 1.3081931e-37
-0.17186117 -0.020011902 -0.044209708 0 0 0 1.3081931e-37
-0.14508295 0.070904016 -0.069680586 0 0 0 1.3081931e-37
-0.086827278 0.067449123 -0.11026657 0 0 0 1.3081931e-37
-0.1010623 0.068293333 -0.14795613 0 0 0 1.3081931e-37
-0.08955884 -0.028531551 -0.22670117 0 0 0 1.3081931e-37
-0.25379491 -0.011530444 -0.24533941 0 0 0 1.3081931e-37
-0.24651814 -0.012283698 -0.28208831 0 0 0 1.3081931e-37
-0.30363846 0.080238603 -0.3078042 0 0 0 1.3081931e-37
-0.31117308 0.080651514 -0.34114388 0 0 0 1.3081931e-37
-0.29765689 0.079849213 -0.37822524 0 0 0 1.3081931e-37
-0.31800354 0.081022866 -0.40861523 0 0 0 1.3081931e-37
-0.074244022 0.16248406 -0.49736857 0 0 0 1.3081931e-37
-0.073088408 0.16238958 -0.53602815 0 0 0 1.3081931e-37
-0.064777851 0.16214469 -0.5765081 0 0 0 1.3081931e-37
-0.053239584 0.16188684 -0.61805743 0 0 0 1.3081931e-37
-0.20895529 -0.022700191 0.066652983 0 0 0 1.3081931e-37
-0.18424177 -0.025336936 0.030377155 0 0 0 1.3081931e-37
-0.17806745 -0.025995687 -0.0068839849 0 0 0 1.3081931e-37
-0.12462997 0.062944397 -0.03236695 0 0 0 1.3081931e-37
-0.17851686 -0.02594775 -0.044083633 0 0 0 1.3081931e-37
-0.13750792 0.063748762 -0.069943033 0 0 0 1.3081931e-37
-0.11714721 0.062477037 -0.10875192 0 0 0 1.3081931e-37
-0.10346746 0.061622605 -0.14781989 0 0 0 1.3081931e-37
-0.065091848 0.15585312 -0.21515916 0 0 0 1.3081931e-37
-0.098189116 -0.034518123 -0.22587605 0 0 0 1.3081931e-37
-0.088624001 -0.035538673 -0.26558354 0 0 0 1.3081931e-37
-0.2550633 -0.017780811 -0.2809864 0 0 0 1.3081931e-37
-0.29809749 0.073710136 -0.3087332 0 0 0 1.3081931e-37
-0.30564761 0.074147657 -0.34217453 0 0 0 1.3081931e-37
-0.30783486 0.07428439 -0.37633979 0 0 0 1.3081931e-37
-0.31056154 0.074420594 -0.41025627 0 0 0 1.3081931e-37
-0.13091207 0.1566624 -0.48452467 0 0 0 1.3081931e-37
-0.13147831 0.15659854 -0.52177209 0 0 0 1.3081931e-37
-0.10164905 0.15592605 -0.56687427 0 0 0 1.3081931e-37
-0.061062813 0.15508613 -0.61590391 0 0 0 1.3081931e-37
-0.20182538 -0.031109035 0.066910826 0 0 0 1.3081931e-37
-0.1771183 -0.033836722 0.030493321 0 0 0 1.3081931e-37
-0.17492151 -0.034079239 -0.00689711 0 0 0 1.3081931e-37
-0.1450882 0.056423083 -0.032065019 0 0 0 1.3081931e-37
-0.18332148 -0.03315188 -0.043999583 0 0 0 1.3081931e-37
-0.14598751 0.056482553 -0.069680586 0 0 0 1.3081931e-37
-0.12163925 0.054872185 -0.10854996 0 0 0 1.3081931e-37
-0.11592245 0.054494083 -0.14700246 0 0 0 1.3081931e-37
-0.079185963 0.14810227 -0.21379617 0 0 0 1.3081931e-37
-0.07764864 -0.044818267 -0.26702955 0 0 0 1.3081931e-37
-0.2440486 -0.026447549 -0.28263927 0 0 0 1.3081931e-37
-0.3005327 0.066635251 -0.30842352 0 0 0 1.3081931e-37
-0.29234779 0.066059053 -0.34457937 0 0 0 1.3081931e-37
-0.30241668 0.066725537 -0.37747106 0 0 0 1.3081931e-37
-0.32274151 0.068036839 -0.40779474 0 0 0 1.3081931e-37
-0.16422033 0.14958553 -0.4769955 0 0 0 1.3081931e-37
-0.16271496 0.14947845 -0.51416886 0 0 0 1.3081931e-37
-0.13275933 0.14869538 -0.5587616 0 0 0 1.3081931e-37
-0.12285185 0.14839801 -0.59867585 0 0 0 1.3081931e-37
-0.2165761 -0.037080094 0.066459596 0 0 0 1.3081931e-37
-0.18592429 -0.040577859 0.030377155 0 0 0 1.3081931e-37
-0.17578101 -0.041735336 -0.00689711 0 0 0 1.3081931e-37
-0.15160084 0.049074888 -0.031974439 0 0 0 1.3081931e-37
-0.16033745 -0.043497637 -0.044503879 0 0 0 1.3081931e-37
-0.1365447 0.048023656 -0.07000865 0 0 0 1.3081931e-37
-0.12217307 0.047020197 -0.10854996 0 0 0 1.3081931e-37
-0.094562054 0.045092359 -0.1485011 0 0 0 1.3081931e-37
-0.087337732 0.14029984 -0.2130173 0 0 0 1.3081931e-37
-0.21338892 -0.037443802 -0.28704688 0 0 0 1.3081931e-37
-0.31284857 0.06026502 -0.30656555 0 0 0 1.3081931e-37
-0.30856323 0.059931353 -0.34183097 0 0 0 1.3081931e-37
-0.30682456 0.059809864 -0.37671688 0 0 0 1.3081931e-37
-0.32713115 0.061194807 -0.40697423 0 0 0 1.3081931e-37
-0.16830611 0.14199054 -0.47610971 0 0 0 1.3081931e-37
-0.17261195 0.14202964 -0.51179284 0 0 0 1.3081931e-37
-0.17162919 0.14189437 -0.5486207 0 0 0 1.3081931e-37
-0.14614892 0.1411545 -0.5922153 0 0 0 1.3081931e-37
-0.21930575 -0.043278918 0.066395134 0 0 0 1.3081931e-37
-0.19661045 -0.045940965 0.030231949 0 0 0 1.3081931e-37
-0.1765399 -0.04829517 -0.00689711 0 0 0 1.3081931e-37
-0.16603589 0.043457538 -0.031763088 0 0 0 1.3081931e-37
-0.17698956 -0.04824242 -0.044167683 0 0 0 1.3081931e-37
-0.15097737 0.042358577 -0.069549359 0 0 0 1.3081931e-37
-0.13261437 0.041018456 -0.10804508 0 0 0 1.3081931e-37
-0.12091947 0.040164977 -0.14672998 0 0 0 1.3081931e-37
-0.12796235 0.13467118 -0.1712378 0 0 0 1.3081931e-37
-0.13129783 0.13473058 -0.20873359 0 0 0 1.3081931e-37
-0.2062645 -0.044808596 -0.28814879 0 0 0 1.3081931e-37
-0.299492 0.053128108 -0.3087332 0 0 0 1.3081931e-37
-0.32472253 0.05493626 -0.33908257 0 0 0 1.3081931e-37
-0.31901729 0.054519609 -0.37445432 0 0 0 1.3081931e-37
-0.32561374 0.054967329 -0.40738449 0 0 0 1.3081931e-37
-0.18993258 0.1360323 -0.4712379 0 0 0 1.3081931e-37
-0.17861938 0.13562921 -0.51036721 0 0 0 1.3081931e-37
-0.18341422 0.13566029 -0.54557848 0 0 0 1.3081931e-37
-0.18291521 0.13557297 -0.58198613 0 0 0 1.3081931e-37
-0.20630717 -0.052453324 0.066846363 0 0 0 1.3081931e-37
-0.14589548 -0.059763938 0.030987022 0 0 0 1.3081931e-37
-0.18142247 -0.055464685 -0.0068839849 0 0 0 1.3081931e-37
-0.15664172 0.035004035 -0.031914052 0 0 0 1.3081931e-37
-0.16202044 -0.057812601 -0.044503879 0 0 0 1.3081931e-37
-0.15952921 0.035225391 -0.069286913 0 0 0 1.3081931e-37
-0.16705608 0.035802454 -0.10632847 0 0 0 1.3081931e-37
-0.087685585 0.02971752 -0.14904605 0 0 0 1.3081931e-37
-0.1102705 0.12625633 -0.17267543 0 0 0 1.3081931e-37
-0.1454649 0.12736838 -0.20737059 0 0 0 1.3081931e-37
-0.321702 0.047590166 -0.30532691 0 0 0 1.3081931e-37
-0.33507717 0.048582166 -0.33736485 0 0 0 1.3081931e-37
-0.32150948 0.047541291 -0.37407723 0 0 0 1.3081931e-37
-0.33395278 0.048462018 -0.40574345 0 0 0 1.3081931e-37
-0.2194078 0.12939085 -0.46459451 0 0 0 1.3081931e-37
-0.20798182 0.12894356 -0.50323915 0 0 0 1.3081931e-37
-0.19718671 0.12848011 -0.54202914 0 0 0 1.3081931e-37
-0.17545223 0.12769106 -0.58413965 0 0 0 1.3081931e-37
-0.21120095 -0.059499413 0.066717446 0 0 0 1.3081931e-37
-0.15677118 -0.06628865 0.030841816 0 0 0 1.3081931e-37
-0.1664834 -0.065077215 -0.0069364845 0 0 0 1.3081931e-37
-0.17718148 0.028882176 -0.031612121 0 0 0 1.3081931e-37
-0.17487192 -0.064030856 -0.044251729 0 0 0 1.3081931e-37
-0.14618707 0.0263917 -0.069746196 0 0 0 1.3081931e-37
-0.13381195 0.025397316 -0.10804508 0 0 0 1.3081931e-37
-0.11019015 0.023499236 -0.14754742 0 0 0 1.3081931e-37
-0.10257363 0.11807277 -0.17331438 0 0 0 1.3081931e-37
-0.15170026 0.11982007 -0.20678645 0 0 0 1.3081931e-37
-0.30650496 0.039204881 -0.3078042 0 0 0 1.3081931e-37
-0.31599319 0.039933413 -0.34080032 0 0 0 1.3081931e-37
-0.30640626 0.039162561 -0.37709397 0 0 0 1.3081931e-37
-0.32865512 0.040917486 -0.40697423 0 0 0 1.3081931e-37
-0.19043207 0.12082877 -0.4712379 0 0 0 1.3081931e-37
-0.20436072 0.12126556 -0.50418961 0 0 0 1.3081931e-37
-0.19358349 0.12076294 -0.54304326 0 0 0 1.3081931e-37
-0.18919277 0.12052965 -0.58037102 0 0 0 1.3081931e-37
-0.17830801 -0.070259959 0.067813285 0 0 0 1.3081931e-37
-0.15364027 -0.073415577 0.030899899 0 0 0 1.3081931e-37
-0.16533184 -0.071919918 -0.006943047 0 0 0 1.3081931e-37
-0.19366121 0.023657858 -0.031370576 0 0 0 1.3081931e-37
-0.1757009 -0.070593446 -0.044251729 0 0 0 1.3081931e-37
-0.19653201 0.023897603 -0.068105884 0 0 0 1.3081931e-37
-0.18611383 0.023027524 -0.10541968 0 0 0 1.3081931e-37
-0.084150553 0.11054494 -0.13604157 0 0 0 1.3081931e-37
-0.11670971 0.017231226 -0.1471387 0 0 0 1.3081931e-37
-0.13868809 0.11269726 -0.17043911 0 0 0 1.3081931e-37
-0.16587448 0.11373349 -0.20542346 0 0 0 1.3081931e-37
-0.29519486 0.032068267 -0.30966216 0 0 0 1.3081931e-37
-0.31060469 0.033321425 -0.34183097 0 0 0 1.3081931e-37
-0.30886781 0.033176273 -0.37671688 0 0 0 1.3081931e-37
-0.34085763 0.035815805 -0.40451267 0 0 0 1.3081931e-37
-0.2121172 0.11516467 -0.46636608 0 0 0 1.3081931e-37
-0.21431351 0.11518014 -0.50181359 0 0 0 1.3081931e-37
-0.19963121 0.11448884 -0.54152209 0 0 0 1.3081931e-37
-0.20676398 0.11470052 -0.57552558 0 0 0 1.3081931e-37
-0.16146326 -0.080251634 0.068393439 0 0 0 1.3081931e-37
-0.15860939 -0.080627382 0.030841816 0 0 0 1.3081931e-37
-0.1564157 -0.080916166 -0.0069758589 0 0 0 1.3081931e-37
-0.17239475 0.014158979 -0.031702701 0 0 0 1.3081931e-37
-0.15686989 -0.080856383 -0.044671975 0 0 0 1.3081931e-37
-0.17129111 0.014062718 -0.068958849 0 0 0 1.3081931e-37
-0.1449759 0.011767864 -0.1075402 0 0 0 1.3081931e-37
-0.044595003 0.10083468 -0.1385309 0 0 0 1.3081931e-37
-0.1233449 0.0098814815 -0.14672998 0 0 0 1.3081931e-37
-0.13303447 0.10464963 -0.17091833 0 0 0 1.3081931e-37
-0.16420364 0.10595743 -0.20561817 0 0 0 1.3081931e-37
-0.31155837 0.026226372 -0.30718488 0 0 0 1.3081931e-37
-0.32103026 0.027018562 -0.34011322 0 0 0 1.3081931e-37
-0.32513344 0.027376592 -0.37370011 0 0 0 1.3081931e-37
-0.3434099 0.028937623 -0.40410241 0 0 0 1.3081931e-37
-0.21242952 0.1076439 -0.46636608 0 0 0 1.3081931e-37
-0.21268463 0.10758322 -0.50228876 0 0 0 1.3081931e-37
-0.20767736 0.10725811 -0.53949392 0 0 0 1.3081931e-37
-0.19553161 0.10665824 -0.57875586 0 0 0 1.3081931e-37
-0.17747498 -0.085928321 0.030580444 0 0 0 1.3081931e-37
-0.16933846 -0.087029874 -0.0069364845 0 0 0 1.3081931e-37
-0.20892549 0.0097519308 -0.031159226 0 0 0 1.3081931e-37
-0.15195632 -0.089383096 -0.044798046 0 0 0 1.3081931e-37
-0.20979762 0.0098312199 -0.06771221 0 0 0 1.3081931e-37
-0.18744183 0.0077990294 -0.10541968 0 0 0 1.3081931e-37
-0.070882082 0.093913347 -0.13691284 0 0 0 1.3081931e-37
-0.1240437 0.00203605 -0.14672998 0 0 0 1.3081931e-37
-0.14135146 0.097211935 -0.17027938 0 0 0 1.3081931e-37
-0.19238639 0.09956459 -0.20289217 0 0 0 1.3081931e-37
-0.30629253 0.018533841 -0.30811387 0 0 0 1.3081931e-37
-0.3098917 0.018826753 -0.34217453 0 0 0 1.3081931e-37
-0.30620599 0.018491521 -0.37747106 0 0 0 1.3081931e-37
-0.32844186 0.020479903 -0.40738449 0 0 0 1.3081931e-37
-0.22056198 0.10049073 -0.46459451 0 0 0 1.3081931e-37
-0.20914364 0.099881954 -0.50323915 0 0 0 1.3081931e-37
-0.20995116 0.099812157 -0.53898692 0 0 0 1.3081931e-37
-0.21703959 0.10007445 -0.57283372 0 0 0 1.3081931e-37
-0.19421959 -0.090286493 0.030348115 0 0 0 1.3081931e-37
-0.16033459 -0.094982415 -0.0069692968 0 0 0 1.3081931e-37
-0.1856308 0.0010484755 -0.031521544 0 0 0 1.3081931e-37
-0.15088463 -0.096292019 -0.044840071 0 0 0 1.3081931e-37
-0.19049311 0.0015058815 -0.068368331 0 0 0 1.3081931e-37
-0.16219234 -0.0011563599 -0.10673238 0 0 0 1.3081931e-37
-0.065234661 0.086724505 -0.13728623 0 0 0 1.3081931e-37
-0.13459826 -0.0037521422 -0.14604878 0 0 0 1.3081931e-37
-0.1317184 0.090045899 -0.17107806 0 0 0 1.3081931e-37
-0.17679739 0.092261404 -0.20444988 0 0 0 1.3081931e-37
-0.3107959 0.012753978 -0.30749455 0 0 0 1.3081931e-37
-0.31830621 0.013426483 -0.34080032 0 0 0 1.3081931e-37
-0.31850815 0.013445482 -0.3752085 0 0 0 1.3081931e-37
-0.34654427 0.016050562 -0.40369216 0 0 0 1.3081931e-37
-0.23256135 0.09465722 -0.46193716 0 0 0 1.3081931e-37
-0.23080063 0.094497725 -0.49801195 0 0 0 1.3081931e-37
-0.21799421 0.0937474 -0.53695875 0 0 0 1.3081931e-37
-0.22697163 0.094127268 -0.57014185 0 0 0 1.3081931e-37
-0.139709 0.082674645 0.043340091 0 0 0 1.3081931e-37
-0.20122433 -0.097026169 0.030260991 0 0 0 1.3081931e-37
-0.16324115 0.083936326 0.0055449745 0 0 0 1.3081931e-37
-0.16537738 -0.10212797 -0.0069561717 0 0 0 1.3081931e-37
-0.20626426 -0.0046227276 -0.031219613 0 0 0 1.3081931e-37
-0.19321156 -0.005898878 -0.068302721 0 0 0 1.3081931e-37
-0.1054697 0.080838896 -0.096505359 0 0 0 1.3081931e-37
-0.19076276 -0.00613828 -0.10531871 0 0 0 1.3081931e-37
-0.091564417 0.080055326 -0.13566817 0 0 0 1.3081931e-37
-0.1472621 -0.010391295 -0.14523135 0 0 0 1.3081931e-37
-0.14207697 0.082764469 -0.17027938 0 0 0 1.3081931e-37
-0.19110703 0.085357808 -0.20308688 0 0 0 1.3081931e-37
-0.28001881 0.0025182664 -0.31244913 0 0 0 1.3081931e-37
-0.29545963 0.0039937496 -0.3449229 0 0 0 1.3081931e-37
-0.33092117 0.0074626654 -0.37294593 0 0 0 1.3081931e-37
-0.32384086 0.0067358613 -0.40861523 0 0 0 1.3081931e-37
-0.20373559 0.085638605 -0.46858054 0 0 0 1.3081931e-37
-0.21178937 0.086000383 -0.50276399 0 0 0 1.3081931e-37
-0.21838474 0.086248308 -0.53695875 0 0 0 1.3081931e-37
-0.21389723 0.08593452 -0.57391047 0 0 0 1.3081931e-37
-0.15211868 0.075574934 0.043095693 0 0 0 1.3081931e-37
-0.18363523 0.07738059 0.0054922653 0 0 0 1.3081931e-37
-0.20701551 -0.012164146 -0.031219613 0 0 0 1.3081931e-37
-0.19197869 -0.01368992 -0.068368331 0 0 0 1.3081931e-37
-0.12585568 0.074070297 -0.095613442 0 0 0 1.3081931e-37
-0.17363453 -0.015551329 -0.10622749 0 0 0 1.3081931e-37
-0.080049038 0.071407676 -0.13641497 0 0 0 1.3081931e-37
-0.15002012 -0.01794748 -0.14509511 0 0 0 1.3081931e-37
-0.15445042 0.075671583 -0.16932096 0 0 0 1.3081931e-37
-0.21140099 0.078899443 -0.20113975 0 0 0 1.3081931e-37
-0.30433273 -0.0023584217 -0.3087332 0 0 0 1.3081931e-37
-0.29225838 -0.0036188215 -0.34560999 0 0 0 1.3081931e-37
-0.31013238 -0.0018041879 -0.37709397 0 0 0 1.3081931e-37
-0.33818185 0.0010095388 -0.40574345 0 0 0 1.3081931e-37
-0.23920441 0.080103263 -0.46060848 0 0 0 1.3081931e-37
-0.23354292 0.07970652 -0.49753675 0 0 0 1.3081931e-37
-0.22652888 0.079195768 -0.53493053 0 0 0 1.3081931e-37
-0.22200847 0.078863837 -0.57175696 0 0 0 1.3081931e-37
-0.16654754 0.068686351 0.042810559 0 0 0 1.3081931e-37
-0.18009353 0.069512248 0.0055028074 0 0 0 1.3081931e-37
-0.201828 -0.02033028 -0.031310193 0 0 0 1.3081931e-37
-0.19475126 -0.021074563 -0.068302721 0 0 0 1.3081931e-37
-0.078455925 0.063315406 -0.097754039 0 0 0 1.3081931e-37
-0.17243958 -0.023421183 -0.10632847 0 0 0 1.3081931e-37
-0.090484381 0.06401071 -0.13579264 0 0 0 1.3081931e-37
-0.15280509 -0.025486246 -0.14495887 0 0 0 1.3081931e-37
-0.12505913 0.066119328 -0.171717 0 0 0 1.3081931e-37
-0.19992542 0.070649073 -0.20230803 0 0 0 1.3081931e-37
-0.28149462 -0.012021318 -0.31244913 0 0 0 1.3081931e-37
-0.30672157 -0.0094017386 -0.34320515 0 0 0 1.3081931e-37
-0.28547919 -0.011637032 -0.38199618 0 0 0 1.3081931e-37
-0.3252846 -0.0074826032 -0.40861523 0 0 0 1.3081931e-37
-0.2746855 0.074826419 -0.45263639 0 0 0 1.3081931e-37
-0.2378633 0.07250198 -0.49658635 0 0 0 1.3081931e-37
-0.22311068 0.071491376 -0.53594464 0 0 0 1.3081931e-37
-0.21668577 0.071025893 -0.57337207 0 0 0 1.3081931e-37
-0.15698218 0.061457172 0.043014225 0 0 0 1.3081931e-37
-0.16453576 0.061941549 0.0055449745 0 0 0 1.3081931e-37
-0.21246028 -0.02573128 -0.031159226 0 0 0 1.3081931e-37
-0.18749619 -0.028436199 -0.068565175 0 0 0 1.3081931e-37
-0.11676955 0.058878601 -0.096059397 0 0 0 1.3081931e-37
-0.17909861 -0.029346094 -0.10602555 0 0 0 1.3081931e-37
-0.10286379 0.057949021 -0.13504584 0 0 0 1.3081931e-37
-0.16343188 -0.031043619 -0.14427766 0 0 0 1.3081931e-37
-0.14736438 0.060803339 -0.1699599 0 0 0 1.3081931e-37
-0.19635844 0.06390965 -0.20269746 0 0 0 1.3081931e-37
-0.26055169 -0.020591229 -0.31585541 0 0 0 1.3081931e-37
-0.25840831 -0.020858958 -0.35179389 0 0 0 1.3081931e-37
-0.27442694 -0.019122466 -0.38425875 0 0 0 1.3081931e-37
-0.26560724 -0.020113856 -0.42133319 0 0 0 1.3081931e-37
-0.29648745 0.06995447 -0.44776458 0 0 0 1.3081931e-37
-0.25571132 0.067260072 -0.49230954 0 0 0 1.3081931e-37
-0.21965241 0.064830855 -0.53695875 0 0 0 1.3081931e-37
-0.2190125 0.064717948 -0.57283372 0 0 0 1.3081931e-37
-0.18941164 0.055899024 0.042362496 0 0 0 1.3081931e-37
-0.1929791 0.056140915 0.0054711821 0 0 0 1.3081931e-37
-0.17950416 -0.037035823 -0.031672508 0 0 0 1.3081931e-37
-0.19628072 -0.035155803 -0.068302721 0 0 0 1.3081931e-37
-0.08140707 0.048575774 -0.097664848 0 0 0 1.3081931e-37
-0.19780588 -0.034984902 -0.10511675 0 0 0 1.3081931e-37
-0.099403381 0.049758062 -0.13529478 0 0 0 1.3081931e-37
-0.15634847 -0.039630711 -0.14482263 0 0 0 1.3081931e-37
-0.12201858 0.051291883 -0.17203648 0 0 0 1.3081931e-37
-0.20281625 0.056735635 -0.20211332 0 0 0 1.3081931e-37
-0.2358346 -0.030795038 -0.31988102 0 0 0 1.3081931e-37
-0.2415967 -0.03018485 -0.35488582 0 0 0 1.3081931e-37
-0.22643352 -0.031884879 -0.39368612 0 0 0 1.3081931e-37
-0.2411263 -0.030273348 -0.42666653 0 0 0 1.3081931e-37
-0.30863976 0.063537523 -0.44510722 0 0 0 1.3081931e-37
-0.2872107 0.062010318 -0.48470628 0 0 0 1.3081931e-37
-0.26261306 0.060230717 -0.5258038 0 0 0 1.3081931e-37
-0.24833536 0.059187412 -0.56475806 0 0 0 1.3081931e-37
-0.17797422 0.047439933 0.042606894 0 0 0 1.3081931e-37
-0.19151306 0.048407793 0.0054764529 0 0 0 1.3081931e-37
-0.18037438 -0.044675112 -0.031672508 0 0 0 1.3081931e-37
-0.18125868 -0.044572726 -0.068827622 0 0 0 1.3081931e-37
-0.11783671 0.043140829 -0.096059397 0 0 0 1.3081931e-37
-0.16692138 -0.046232641 -0.10673238 0 0 0 1.3081931e-37
-0.1039381 0.042109355 -0.13504584 0 0 0 1.3081931e-37
-0.17110324 -0.045748487 -0.14386895 0 0 0 1.3081931e-37
-0.11063433 0.042588159 -0.1729949 0 0 0 1.3081931e-37
-0.18150306 0.047619134 -0.20425516 0 0 0 1.3081931e-37
-0.21705389 -0.040500984 -0.32297766 0 0 0 1.3081931e-37
-0.20721221 -0.041677132 -0.36106971 0 0 0 1.3081931e-37
-0.20777369 -0.041612089 -0.39745703 0 0 0 1.3081931e-37
-0.22058225 -0.040164649 -0.43117934 0 0 0 1.3081931e-37
-0.31692195 0.056928933 -0.44333565 0 0 0 1.3081931e-37
-0.27415299 0.053791896 -0.4880327 0 0 0 1.3081931e-37
-0.2689153 0.053311065 -0.52428263 0 0 0 1.3081931e-37
-0.23924637 0.051109672 -0.56744993 0 0 0 1.3081931e-37
-0.163589 0.039777011 0.08025974 0 0 0 1.3081931e-37
-0.098691463 0.034932658 0.04423622 0 0 0 1.3081931e-37
-0.18999434 0.041748062 0.0054817237 0 0 0 1.3081931e-37
-0.20298624 -0.048621997 -0.031340387 0 0 0 1.3081931e-37
-0.17210197 -0.052295953 -0.069155686 0 0 0 1.3081931e-37
-0.14821649 0.038629502 -0.094721526 0 0 0 1.3081931e-37
-0.16769457 -0.05282028 -0.10673238 0 0 0 1.3081931e-37
-0.12035871 0.036512405 -0.13405012 0 0 0 1.3081931e-37
-0.17583752 -0.051851586 -0.14359647 0 0 0 1.3081931e-37
-0.11311674 0.035971701 -0.17283517 0 0 0 1.3081931e-37
-0.18396616 0.041225076 -0.20406045 0 0 0 1.3081931e-37
-0.20015049 -0.049032405 -0.3257646 0 0 0 1.3081931e-37
-0.20797086 -0.048138216 -0.36106971 0 0 0 1.3081931e-37
-0.20268106 -0.04876776 -0.39858833 0 0 0 1.3081931e-37
-0.19801116 -0.049360126 -0.43610242 0 0 0 1.3081931e-37
-0.32514989 0.051394522 -0.44156408 0 0 0 1.3081931e-37
-0.31335735 0.050443083 -0.47852868 0 0 0 1.3081931e-37
-0.29638469 0.049068049 -0.51718402 0 0 0 1.3081931e-37
-0.26084208 0.046333358 -0.56152779 0 0 0 1.3081931e-37
-0.1905756 0.034146696 0.0054817237 0 0 0 1.3081931e-37
-0.19595909 -0.057149142 -0.031461157 0 0 0 1.3081931e-37
-0.16906023 -0.060449064 -0.069286913 0 0 0 1.3081931e-37
-0.15478516 0.031343132 -0.094453946 0 0 0 1.3081931e-37
-0.1785357 -0.059286624 -0.10622749 0 0 0 1.3081931e-37
-0.10105968 0.027096659 -0.13529478 0 0 0 1.3081931e-37
-0.19062567 -0.057803452 -0.1426428 0 0 0 1.3081931e-37
-0.10576987 0.027465701 -0.17347412 0 0 0 1.3081931e-37
-0.18058085 0.033290595 -0.20444988 0 0 0 1.3081931e-37
-0.22263741 -0.053948641 -0.32235831 0 0 0 1.3081931e-37
-0.21083713 -0.055433065 -0.36072615 0 0 0 1.3081931e-37
-0.20749307 -0.055843502 -0.39783412 0 0 0 1.3081931e-37
-0.20086932 -0.056692988 -0.43569216 0 0 0 1.3081931e-37
-0.32958376 0.04459396 -0.4406783 0 0 0 1.3081931e-37
-0.30809581 0.042837143 -0.47995427 0 0 0 1.3081931e-37
-0.31043959 0.042918414 -0.51363474 0 0 0 1.3081931e-37
-0.29597044 0.041711301 -0.55183697 0 0 0 1.3081931e-37
-0.191185 0.026547521 0.0054817237 0 0 0 1.3081931e-37
-0.20285487 -0.063975662 -0.031370576 0 0 0 1.3081931e-37
-0.17596579 -0.067374468 -0.069090076 0 0 0 1.3081931e-37
-0.14943099 0.023122802 -0.094721526 0 0 0 1.3081931e-37
-0.19534087 -0.064925432 -0.10541968 0 0 0 1.3081931e-37
-0.12755799 0.021291196 -0.13367671 0 0 0 1.3081931e-37
-0.11236501 0.020044759 -0.1729949 0 0 0 1.3081931e-37
-0.1692903 0.024678066 -0.20561817 0 0 0 1.3081931e-37
-0.19220495 -0.065395296 -0.32731292 0 0 0 1.3081931e-37
-0.1922276 -0.065429181 -0.36416164 0 0 0 1.3081931e-37
-0.18894601 -0.065844148 -0.40160507 0 0 0 1.3081931e-37
-0.1882174 -0.065973103 -0.43856394 0 0 0 1.3081931e-37
-0.32237875 0.036864698 -0.44244987 0 0 0 1.3081931e-37
-0.31254482 0.035987273 -0.47900388 0 0 0 1.3081931e-37
-0.28787827 0.033853397 -0.51971924 0 0 0 1.3081931e-37
-0.29655135 0.034498364 -0.55183697 0 0 0 1.3081931e-37
-0.22004509 0.022447839 0.041792229 0 0 0 1.3081931e-37
-0.2056787 0.021224037 0.0054448275 0 0 0 1.3081931e-37
-0.20170045 -0.070707321 -0.03140077 0 0 0 1.3081931e-37
-0.19464636 -0.071621507 -0.068499558 0 0 0 1.3081931e-37
-0.16193128 0.017497391 -0.094186373 0 0 0 1.3081931e-37
-0.17240191 -0.074504226 -0.10663141 0 0 0 1.3081931e-37
-0.12016368 0.013901711 -0.13417457 0 0 0 1.3081931e-37
-0.099025249 0.012100667 -0.17411307 0 0 0 1.3081931e-37
-0.12422442 0.01421009 -0.2100966 0 0 0 1.3081931e-37
-0.24986339 -0.064537227 -0.3183327 0 0 0 1.3081931e-37
-0.18133736 -0.073457152 -0.36622292 0 0 0 1.3081931e-37
-0.19172859 -0.072109967 -0.40122798 0 0 0 1.3081931e-37
-0.19293499 -0.071990311 -0.43774343 0 0 0 1.3081931e-37
-0.34037948 0.032258868 -0.43846384 0 0 0 1.3081931e-37
-0.30918765 0.029525921 -0.47995427 0 0 0 1.3081931e-37
-0.3096031 0.029458329 -0.5141418 0 0 0 1.3081931e-37
-0.31050432 0.029466689 -0.54806834 0 0 0 1.3081931e-37
-0.20277166 0.013363555 0.042158831 0 0 0 1.3081931e-37
-0.19836664 0.012972072 0.0054659112 0 0 0 1.3081931e-37
-0.15313816 -0.084871888 -0.032155596 0 0 0 1.3081931e-37
-0.14412713 -0.086073279 -0.070205487 0 0 0 1.3081931e-37
-0.14867067 0.008555159 -0.094810717 0 0 0 1.3081931e-37
-0.16351008 -0.08348912 -0.10713629 0 0 0 1.3081931e-37
-0.12880063 0.0067515969 -0.13367671 0 0 0 1.3081931e-37
-0.091772795 0.0034599751 -0.17475201 0 0 0 1.3081931e-37
-0.10309792 0.0044286996 -0.21223845 0 0 0 1.3081931e-37
-0.34099472 0.025208756 -0.43846384 0 0 0 1.3081931e-37
-0.30594301 0.02201651 -0.48090467 0 0 0 1.3081931e-37
-0.31600976 0.02281107 -0.51262063 0 0 0 1.3081931e-37
-0.29961872 0.021279946 -0.55129862 0 0 0 1.3081931e-37
-0.18553734 0.004150331 0.042525429 0 0 0 1.3081931e-37
-0.18511319 0.0041110814 0.0055028074 0 0 0 1.3081931e-37
-0.12683916 0.0924946 -0.019645847 0 0 0 1.3081931e-37
-0.17399645 -0.089892119 -0.031853668 0 0 0 1.3081931e-37
-0.16102052 -0.091670513 -0.069680586 0 0 0 1.3081931e-37
-0.16330051 0.0020917952 -0.094186373 0 0 0 1.3081931e-37
-0.12752318 -0.0012578517 -0.13380118 0 0 0 1.3081931e-37
-0.098450661 -0.0039497167 -0.17427279 0 0 0 1.3081931e-37
-0.11372685 -0.0025731325 -0.21126488 0 0 0 1.3081931e-37
-0.34551966 0.018521398 -0.43757805 0 0 0 1.3081931e-37
-0.30079269 0.014301494 -0.48233029 0 0 0 1.3081931e-37
-0.30317521 0.014419124 -0.51616997 0 0 0 1.3081931e-37
-0.31753564 0.015684515 -0.54645324 0 0 0 1.3081931e-37
-0.11184692 0.084985539 0.056475118 0 0 0 1.3081931e-37
-0.19013309 -0.0019979179 0.042443961 0 0 0 1.3081931e-37
-0.19966435 -0.0010853708 0.0054659112 0 0 0 1.3081931e-37
-0.13516569 0.086194545 -0.019572405 0 0 0 1.3081931e-37
-0.17094588 -0.097012818 -0.031914052 0 0 0 1.3081931e-37
-0.13384938 0.086126305 -0.057388127 0 0 0 1.3081931e-37
-0.14412069 -0.10077524 -0.070271097 0 0 0 1.3081931e-37
-0.16591072 -0.0043170452 -0.094097182 0 0 0 1.3081931e-37
-0.14007735 -0.0068278164 -0.13305438 0 0 0 1.3081931e-37
-0.085199594 -0.012082949 -0.17539096 0 0 0 1.3081931e-37
-0.098511696 -0.010846332 -0.21282259 0 0 0 1.3081931e-37
-0.34220576 0.012121871 -0.43846384 0 0 0 1.3081931e-37
-0.31104422 0.0090624392 -0.47995427 0 0 0 1.3081931e-37
-0.31723773 0.0095541775 -0.51262063 0 0 0 1.3081931e-37
-0.30085742 0.0079115182 -0.55129862 0 0 0 1.3081931e-37
-0.14021778 0.078649178 0.055741675 0 0 0 1.3081931e-37
-0.17495656 -0.011181444 0.042769827 0 0 0 1.3081931e-37
-0.15953374 0.079721667 0.017880475 0 0 0 1.3081931e-37
-0.18249106 -0.010432184 0.0055133491 0 0 0 1.3081931e-37
-0.11561632 0.077283219 -0.019756012 0 0 0 1.3081931e-37
-0.11430669 0.077210508 -0.057925973 0 0 0 1.3081931e-37
-0.18057871 -0.010622367 -0.093472838 0 0 0 1.3081931e-37
-0.15474153 -0.013228878 -0.13218312 0 0 0 1.3081931e-37
-0.099865675 -0.018686861 -0.17427279 0 0 0 1.3081931e-37
-0.13097787 -0.015630022 -0.20970717 0 0 0 1.3081931e-37
0.3474896 -0.17967844 -0.55302542 0 0 0 1.3081931e-37
-0.34677613 0.0054654628 -0.43757805 0 0 0 1.3081931e-37
-0.28468072 -0.00079351664 -0.4866071 0 0 0 1.3081931e-37
-0.28713465 -0.00065338612 -0.52073336 0 0 0 1.3081931e-37
-0.31881201 0.0024381727 -0.54645324 0 0 0 1.3081931e-37
-0.13667274 0.070628822 0.055846453 0 0 0 1.3081931e-37
-0.19960046 -0.016375631 0.042281028 0 0 0 1.3081931e-37
-0.17994046 0.073190309 0.017710831 0 0 0 1.3081931e-37
-0.20116878 -0.016213879 0.0054659112 0 0 0 1.3081931e-37
-0.1440177 0.071063653 -0.019498963 0 0 0 1.3081931e-37
-0.10677552 0.068858877 -0.058141112 0 0 0 1.3081931e-37
-0.17340207 -0.019077882 -0.093829609 0 0 0 1.3081931e-37
-0.15353918 -0.021163911 -0.13230759 0 0 0 1.3081931e-37
-0.11653399 -0.024981499 -0.1729949 0 0 0 1.3081931e-37
-0.11197019 -0.025490269 -0.21165431 0 0 0 1.3081931e-37
0.336411 -0.18781719 -0.55097419 0 0 0 1.3081931e-37
-0.34748948 -0.0015610158 -0.43757805 0 0 0 1.3081931e-37
-0.29701197 -0.0068485588 -0.48375589 0 0 0 1.3081931e-37
-0.32635856 -0.003916353 -0.51059246 0 0 0 1.3081931e-37
-0.32911634 -0.0036993027 -0.54376131 0 0 0 1.3081931e-37
-0.22917128 -0.019788951 0.077975303 0 0 0 1.3081931e-37
-0.15104699 0.064816549 0.055479731 0 0 0 1.3081931e-37
-0.20823336 -0.022015125 0.042118095 0 0 0 1.3081931e-37
-0.16037798 0.065398365 0.017880475 0 0 0 1.3081931e-37
-0.19588113 -0.023328424 0.0054817237 0 0 0 1.3081931e-37
-0.15440273 0.065025792 -0.019407161 0 0 0 1.3081931e-37
-0.10918283 0.062206149 -0.058087327 0 0 0 1.3081931e-37
-0.16812968 -0.026279017 -0.094097182 0 0 0 1.3081931e-37
-0.15820336 -0.02737157 -0.13205865 0 0 0 1.3081931e-37
-0.12715292 -0.030673474 -0.17219622 0 0 0 1.3081931e-37
-0.088926554 -0.034776852 -0.21399088 0 0 0 1.3081931e-37
0.34486818 -0.19744691 -0.55302542 0 0 0 1.3081931e-37
-0.33260655 -0.0092347413 -0.44112119 0 0 0 1.3081931e-37
-0.29766071 -0.013027698 -0.48375589 0 0 0 1.3081931e-37
-0.3019892 -0.012670234 -0.51718402 0 0 0 1.3081931e-37
-0.32017851 -0.01079917 -0.54645324 0 0 0 1.3081931e-37
-0.20812583 -0.029650703 0.078812927 0 0 0 1.3081931e-37
-0.1635139 0.057862699 0.055165399 0 0 0 1.3081931e-37
-0.21699858 -0.028674424 0.041955162 0 0 0 1.3081931e-37
-0.19080663 0.05966495 0.017626008 0 0 0 1.3081931e-37
-0.20067716 -0.030470297 0.0054711821 0 0 0 1.3081931e-37
-0.14292574 0.056503162 -0.019517325 0 0 0 1.3081931e-37
-0.11168456 0.054440185 -0.058033545 0 0 0 1.3081931e-37
-0.18087673 -0.032648936 -0.093562029 0 0 0 1.3081931e-37
-0.17094326 -0.033778876 -0.13131185 0 0 0 1.3081931e-37
-0.17159629 -0.033707008 -0.16868201 0 0 0 1.3081931e-37
-0.30429482 -0.019519299 -0.44776458 0 0 0 1.3081931e-37
-0.29071808 -0.021085992 -0.48565671 0 0 0 1.3081931e-37
-0.30661535 -0.019436359 -0.51616997 0 0 0 1.3081931e-37
-0.3190372 -0.01813437 -0.54699159 0 0 0 1.3081931e-37
-0.21889758 -0.036055833 0.078432195 0 0 0 1.3081931e-37
-0.1500752 0.049190834 0.05553212 0 0 0 1.3081931e-37
-0.22379827 -0.03549841 0.041832965 0 0 0 1.3081931e-37
-0.16339111 0.050119177 0.01786351 0 0 0 1.3081931e-37
-0.20152307 -0.03803201 0.0054711821 0 0 0 1.3081931e-37
-0.15342879 0.049424633 -0.019425521 0 0 0 1.3081931e-37
-0.14413095 0.048776433 -0.057172991 0 0 0 1.3081931e-37
-0.16584921 -0.042089611 -0.094275564 0 0 0 1.3081931e-37
-0.16188502 -0.042577669 -0.13193418 0 0 0 1.3081931e-37
-0.15858865 -0.042952657 -0.16980016 0 0 0 1.3081931e-37
-0.25665498 -0.032222643 -0.45883688 0 0 0 1.3081931e-37
-0.22204113 -0.036239833 -0.50276399 0 0 0 1.3081931e-37
-0.29973149 -0.027486861 -0.51819813 0 0 0 1.3081931e-37
-0.32366467 -0.024825662 -0.54591483 0 0 0 1.3081931e-37
-0.21579409 -0.044017017 0.078584485 0 0 0 1.3081931e-37
-0.15661144 0.041882187 0.055374954 0 0 0 1.3081931e-37
-0.22267675 -0.043208614 0.041873697 0 0 0 1.3081931e-37
-0.19784951 0.044909075 0.017575115 0 0 0 1.3081931e-37
-0.18054724 -0.048156947 0.0055291615 0 0 0 1.3081931e-37
-0.18589497 0.044031605 -0.019131752 0 0 0 1.3081931e-37
-0.14468694 0.041006923 -0.057172991 0 0 0 1.3081931e-37
-0.14887857 -0.05187659 -0.09507829 0 0 0 1.3081931e-37
-0.17070556 -0.049349934 -0.13143632 0 0 0 1.3081931e-37
-0.22457862 -0.043454409 -0.46636608 0 0 0 1.3081931e-37
-0.20747304 -0.045540273 -0.50656557 0 0 0 1.3081931e-37
-0.23331761 -0.042605639 -0.53594464 0 0 0 1.3081931e-37
-0.30727267 -0.033964917 -0.55076021 0 0 0 1.3081931e-37
-0.2244966 -0.049493626 0.078279898 0 0 0 1.3081931e-37
-0.16906857 0.036177441 0.055060621 0 0 0 1.3081931e-37
-0.23138094 -0.048663124 0.041710764 0 0 0 1.3081931e-37
-0.19035983 0.037807494 0.017642973 0 0 0 1.3081931e-37
-0.18728304 -0.053983152 0.0055133491 0 0 0 1.3081931e-37
-0.16644382 0.035976484 -0.019315358 0 0 0 1.3081931e-37
-0.13721251 0.033738539 -0.057388127 0 0 0 1.3081931e-37
-0.17347312 -0.055649191 -0.094007991 0 0 0 1.3081931e-37
-0.16554332 -0.056643009 -0.13180973 0 0 0 1.3081931e-37
-0.20404387 -0.052435338 -0.4712379 0 0 0 1.3081931e-37
-0.19474292 -0.053632855 -0.50989199 0 0 0 1.3081931e-37
-0.22063446 -0.05061096 -0.53949392 0 0 0 1.3081931e-37
-0.2888844 -0.042425394 -0.556144 0 0 0 1.3081931e-37
-0.17365646 0.028819263 0.054955844 0 0 0 1.3081931e-37
-0.23229337 -0.0561122 0.041710764 0 0 0 1.3081931e-37
-0.20291686 0.031167343 0.017541187 0 0 0 1.3081931e-37
-0.17035294 -0.063815176 0.0055607869 0 0 0 1.3081931e-37
-0.19894266 0.030848414 -0.019021587 0 0 0 1.3081931e-37
-0.16173792 0.027862847 -0.056742713 0 0 0 1.3081931e-37
-0.1565671 -0.065529644 -0.094810717 0 0 0 1.3081931e-37
-0.17044735 -0.063840568 -0.13156079 0 0 0 1.3081931e-37
-0.17981052 -0.063119292 -0.4769955 0 0 0 1.3081931e-37
-0.18989062 -0.061936945 -0.51131761 0 0 0 1.3081931e-37
-0.19275713 -0.061689824 -0.54709959 0 0 0 1.3081931e-37
-0.2074492 -0.066860408 0.042240296 0 0 0 1.3081931e-37
-0.1975584 0.023111567 0.01759208 0 0 0 1.3081931e-37
-0.17132139 -0.071487844 0.0055607869 0 0 0 1.3081931e-37
-0.17365623 0.021105289 -0.019260276 0 0 0 1.3081931e-37
-0.15639377 0.01965633 -0.056904066 0 0 0 1.3081931e-37
-0.19519639 -0.068429798 -0.093116075 0 0 0 1.3081931e-37
-0.1931951 -0.068722874 -0.13019165 0 0 0 1.3081931e-37
-0.1769073 -0.071253747 -0.47788128 0 0 0 1.3081931e-37
-0.18121743 -0.070774615 -0.51369363 0 0 0 1.3081931e-37
-0.17836642 -0.071251541 -0.55115592 0 0 0 1.3081931e-37
-0.22955394 -0.064751029 -0.57337207 0 0 0 1.3081931e-37
