# .PCD v0.7 - Point Cloud Data file format
VERSION 0.7
FIELDS x y z normal_x normal_y normal_z curvature
SIZE 4 4 4 4 4 4 4
TYPE F F F F F F F
COUNT 1 1 1 1 1 1 1
WIDTH 273
HEIGHT 1
VIEWPOINT 0 0 0 1 0 0 0
POINTS 273
DATA ascii
-0.44365394 0.58222008 -0.65266854 0 0 0 1.3333209e-38
-0.44953048 0.54548168 -0.85418522 0 0 0 1.3333209e-38
-0.46394479 0.45212269 -1.0494577 0 0 0 1.3333209e-38
-0.40053892 0.58356571 -0.65311944 0 0 0 1.3333209e-38
-0.40125501 0.58033085 -0.85728973 0 0 0 1.3333209e-38
-0.40917659 0.53024292 -1.0573208 0 0 0 1.3333209e-38
-0.36369288 0.583745 -0.65345758 0 0 0 1.3333209e-38
-0.36187828 0.59625721 -0.85891587 0 0 0 1.3333209e-38
-0.37281775 0.52846718 -1.0576866 0 0 0 1.3333209e-38
-0.32605052 0.55129623 -0.6519922 0 0 0 1.3333209e-38
-0.32418478 0.56383228 -0.85699403 0 0 0 1.3333209e-38
-0.33277059 0.51183987 -1.0567722 0 0 0 1.3333209e-38
-0.26137424 0.68002605 -0.45265549 0 0 0 1.3333209e-38
-0.28429747 0.54432201 -0.6519922 0 0 0 1.3333209e-38
-0.28504324 0.54111767 -0.85581136 0 0 0 1.3333209e-38
-0.29116213 0.50489044 -1.0567722 0 0 0 1.3333209e-38
-0.24382877 0.56552887 -0.44839829 0 0 0 1.3333209e-38
-0.24751341 0.54412651 -0.6523304 0 0 0 1.3333209e-38
-0.25300753 0.51339817 -0.85418522 0 0 0 1.3333209e-38
-0.25653183 0.49292374 -1.0562236 0 0 0 1.3333209e-38
-0.20098519 0.56415844 -0.44863051 0 0 0 1.3333209e-38
-0.20094323 0.56439686 -0.65390849 0 0 0 1.3333209e-38
-0.20586491 0.53758621 -0.85655057 0 0 0 1.3333209e-38
-0.20981741 0.51511765 -1.0589665 0 0 0 1.3333209e-38
-0.16095352 0.54689026 -0.4482435 0 0 0 1.3333209e-38
-0.15596437 0.57465172 -0.65492302 0 0 0 1.3333209e-38
-0.16663218 0.5164299 -0.85551572 0 0 0 1.3333209e-38
-0.17101574 0.49203587 -1.0575037 0 0 0 1.3333209e-38
-0.11686754 0.58582687 -0.65593755 0 0 0 1.3333209e-38
-0.11839056 0.57862949 -0.86068988 0 0 0 1.3333209e-38
-0.12824464 0.52476311 -1.0611609 0 0 0 1.3333209e-38
-0.070957184 0.59967709 -0.65717751 0 0 0 1.3333209e-38
-0.06921649 0.61010647 -0.86364657 0 0 0 1.3333209e-38
-0.071236134 0.59929085 -1.0688412 0 0 0 1.3333209e-38
-0.015199661 0.66434383 -0.66134822 0 0 0 1.3333209e-38
-0.0048520565 0.71974754 -0.87251663 0 0 0 1.3333209e-38
0.03006196 0.70444679 -0.66405362 0 0 0 1.3333209e-38
0.025014877 0.67948151 -0.87000346 0 0 0 1.3333209e-38
0.059503078 0.6320858 -0.86704677 0 0 0 1.3333209e-38
0.096430302 0.598279 -0.86512494 0 0 0 1.3333209e-38
-0.43504453 0.50398922 -0.98769325 0 0 0 1.3333209e-38
-0.44413316 0.44581795 -1.1848694 0 0 0 1.3333209e-38
0.10876966 0.47569561 -0.8564027 0 0 0 1.3333209e-38
-0.40034401 0.49246025 -0.98717916 0 0 0 1.3333209e-38
-0.41305959 0.41271782 -1.1819816 0 0 0 1.3333209e-38
-0.33854067 0.6099205 -0.24390982 0 0 0 1.3333209e-38
0.14006567 0.41831493 -0.85270685 0 0 0 1.3333209e-38
-0.34404063 0.57622337 -0.99506152 0 0 0 1.3333209e-38
-0.35771382 0.49245071 -1.1910578 0 0 0 1.3333209e-38
-0.30809939 0.53396225 -0.24243897 0 0 0 1.3333209e-38
-0.30876005 0.53000641 -0.99163443 0 0 0 1.3333209e-38
-0.3171593 0.47970581 -1.190439 0 0 0 1.3333209e-38
-0.26934421 0.54567814 -0.24281719 0 0 0 1.3333209e-38
-0.27370584 0.52005386 -0.9912917 0 0 0 1.3333209e-38
-0.27758861 0.49724388 -1.1929144 0 0 0 1.3333209e-38
-0.22555566 0.55031586 -0.24306934 0 0 0 1.3333209e-38
-0.23275077 0.50896168 -0.99094898 0 0 0 1.3333209e-38
-0.231601 0.51557064 -1.195596 0 0 0 1.3333209e-38
0.123914 -0.40117645 -0.41441819 0 0 0 1.3333209e-38
-0.19115353 0.50164604 -0.99094898 0 0 0 1.3333209e-38
-0.18963146 0.51020908 -1.1958022 0 0 0 1.3333209e-38
0.14257574 -0.47092438 -0.41194126 0 0 0 1.3333209e-38
-0.14913177 0.5305481 -0.9940334 0 0 0 1.3333209e-38
0.15455008 -0.41723824 -0.98161501 0 0 0 1.3333209e-38
-0.15007353 0.52534485 -1.1980714 0 0 0 1.3333209e-38
0.16352391 -0.55361271 -0.40899992 0 0 0 1.3333209e-38
0.2061069 -0.36800671 -0.79682559 0 0 0 1.3333209e-38
-0.10455918 0.53860092 -0.99540424 0 0 0 1.3333209e-38
0.18201637 -0.47254562 -0.97722626 0 0 0 1.3333209e-38
-0.10805535 0.51968193 -1.1982776 0 0 0 1.3333209e-38
0.1926558 -0.57473564 -0.40845811 0 0 0 1.3333209e-38
0.21085835 -0.49605751 -0.78765988 0 0 0 1.3333209e-38
-0.060708523 0.57501984 -0.99917406 0 0 0 1.3333209e-38
0.20370722 -0.52664948 -0.97283751 0 0 0 1.3333209e-38
-0.065748215 0.54821968 -1.2019906 0 0 0 1.3333209e-38
0.25522971 -0.47860909 -0.41263789 0 0 0 1.3333209e-38
0.29240036 -0.32219505 -0.61050999 0 0 0 1.3333209e-38
0.24461913 -0.52245712 -0.78632939 0 0 0 1.3333209e-38
0.23828268 -0.54912186 -0.9715575 0 0 0 1.3333209e-38
0.2997725 -0.4605093 -0.41372153 0 0 0 1.3333209e-38
0.26062894 -0.62258244 -0.59360147 0 0 0 1.3333209e-38
0.28149629 -0.53539371 -0.78603369 0 0 0 1.3333209e-38
0.0072517395 0.4787941 -0.99214852 0 0 0 1.3333209e-38
0.27366114 -0.56783772 -0.97064316 0 0 0 1.3333209e-38
0.32876325 -0.50664806 -0.41225088 0 0 0 1.3333209e-38
-0.44376111 0.60006618 -0.58536196 0 0 0 1.3333209e-38
0.2895093 -0.66660595 -0.59157246 0 0 0 1.3333209e-38
-0.44956386 0.56242657 -0.78800946 0 0 0 1.3333209e-38
0.31403375 -0.56589508 -0.78440756 0 0 0 1.3333209e-38
0.05536294 0.50381947 -0.99506152 0 0 0 1.3333209e-38
0.30798578 -0.59054184 -0.96936309 0 0 0 1.3333209e-38
0.37762785 -0.44872952 -0.4148826 0 0 0 1.3333209e-38
-0.41247559 0.56486988 -0.58384734 0 0 0 1.3333209e-38
0.32484388 -0.66093826 -0.59236151 0 0 0 1.3333209e-38
-0.40815449 0.59232521 -0.79046178 0 0 0 1.3333209e-38
0.34438515 -0.58161163 -0.78381622 0 0 0 1.3333209e-38
0.33778191 -0.60816097 -0.96844876 0 0 0 1.3333209e-38
-0.3694011 0.56610012 -0.58425122 0 0 0 1.3333209e-38
0.36508417 -0.65867424 -0.59303784 0 0 0 1.3333209e-38
-0.36466336 0.5955019 -0.791143 0 0 0 1.3333209e-38
0.38588929 -0.57556534 -0.78499889 0 0 0 1.3333209e-38
0.37430525 -0.62142181 -0.96808308 0 0 0 1.3333209e-38
-0.32115817 0.63574791 -0.38186535 0 0 0 1.3333209e-38
-0.3322686 0.56815147 -0.58465517 0 0 0 1.3333209e-38
0.40449691 -0.63779163 -0.59472871 0 0 0 1.3333209e-38
-0.33747232 0.53649235 -0.7874645 0 0 0 1.3333209e-38
0.4220922 -0.56830692 -0.78618151 0 0 0 1.3333209e-38
0.41529679 -0.59485531 -0.97137463 0 0 0 1.3333209e-38
-0.29135859 0.55581856 -0.37943769 0 0 0 1.3333209e-38
-0.2934345 0.54347229 -0.58374637 0 0 0 1.3333209e-38
0.45946574 -0.57979298 -0.59867406 0 0 0 1.3333209e-38
-0.29544258 0.53152847 -0.78760076 0 0 0 1.3333209e-38
0.46625805 -0.55292034 -0.7881034 0 0 0 1.3333209e-38
0.46536684 -0.55634975 -0.97594619 0 0 0 1.3333209e-38
-0.25060523 0.54280663 -0.37924087 0 0 0 1.3333209e-38
-0.243927 0.5816555 -0.58606881 0 0 0 1.3333209e-38
-0.25443828 0.52050877 -0.7873283 0 0 0 1.3333209e-38
-0.21691144 0.52478695 -0.37884718 0 0 0 1.3333209e-38
-0.21217728 0.55181789 -0.58485711 0 0 0 1.3333209e-38
-0.2173686 0.52217674 -0.78787321 0 0 0 1.3333209e-38
-0.16786313 0.55873394 -0.38022503 0 0 0 1.3333209e-38
-0.15881371 0.60931206 -0.5881893 0 0 0 1.3333209e-38
-0.17045164 0.5442667 -0.78991681 0 0 0 1.3333209e-38
-0.11577225 0.60761929 -0.58849227 0 0 0 1.3333209e-38
-0.12191153 0.57401657 -0.79250538 0 0 0 1.3333209e-38
-0.067955017 0.63129139 -0.59010786 0 0 0 1.3333209e-38
-0.04971385 0.72910118 -0.80381328 0 0 0 1.3333209e-38
0.20956063 -0.4385376 -0.91863698 0 0 0 1.3333209e-38
0.20509219 -0.45777035 -1.1056581 0 0 0 1.3333209e-38
-0.021861076 0.67749691 -0.59283423 0 0 0 1.3333209e-38
-0.010390997 0.73794651 -0.80490315 0 0 0 1.3333209e-38
0.22806954 -0.50630856 -0.91332495 0 0 0 1.3333209e-38
0.23770928 -0.4654026 -1.1056581 0 0 0 1.3333209e-38
0.022944212 0.68279839 -0.80163342 0 0 0 1.3333209e-38
0.26547837 -0.51724434 -0.91315359 0 0 0 1.3333209e-38
0.25951362 -0.54214764 -1.0984383 0 0 0 1.3333209e-38
0.25374222 -0.56624317 -1.2828504 0 0 0 1.3333209e-38
-0.47786927 0.56923389 -0.71978813 0 0 0 1.3333209e-38
0.054521799 0.65223885 -0.79999852 0 0 0 1.3333209e-38
-0.48423016 0.52727318 -0.92152131 0 0 0 1.3333209e-38
0.28803349 -0.56573009 -0.90955514 0 0 0 1.3333209e-38
0.28904867 -0.56154919 -1.0972006 0 0 0 1.3333209e-38
0.27383637 -0.62419033 -1.2765844 0 0 0 1.3333209e-38
-0.43727505 0.55492592 -0.71929026 0 0 0 1.3333209e-38
0.084867716 0.58517838 -0.79591137 0 0 0 1.3333209e-38
-0.4416461 0.52678871 -0.92200053 0 0 0 1.3333209e-38
0.332371 -0.54786301 -0.9119541 0 0 0 1.3333209e-38
-0.45734513 0.42443275 -1.1155175 0 0 0 1.3333209e-38
0.32338309 -0.5842905 -1.0957566 0 0 0 1.3333209e-38
0.31127691 -0.63335609 -1.2765844 0 0 0 1.3333209e-38
-0.38614619 0.60848999 -0.51766831 0 0 0 1.3333209e-38
-0.39550805 0.54835892 -0.71929026 0 0 0 1.3333209e-38
0.10755897 0.48286152 -0.78937185 0 0 0 1.3333209e-38
-0.39277744 0.56552219 -0.9256745 0 0 0 1.3333209e-38
0.36040235 -0.59590054 -0.90852702 0 0 0 1.3333209e-38
-0.41543055 0.42187214 -1.115907 0 0 0 1.3333209e-38
0.35710049 -0.60907459 -1.0941064 0 0 0 1.3333209e-38
0.34482241 -0.65806484 -1.2746563 0 0 0 1.3333209e-38
-0.34281397 0.64807129 -0.51971972 0 0 0 1.3333209e-38
-0.35301054 0.58398628 -0.72190404 0 0 0 1.3333209e-38
0.1289289 0.40715313 -0.78460348 0 0 0 1.3333209e-38
-0.35534537 0.56960201 -0.92647314 0 0 0 1.3333209e-38
0.40141392 -0.56925583 -0.91161138 0 0 0 1.3333209e-38
-0.36090899 0.53407192 -1.1275898 0 0 0 1.3333209e-38
0.3912003 -0.60947132 -1.0949316 0 0 0 1.3333209e-38
0.38805008 -0.62187576 -1.2801994 0 0 0 1.3333209e-38
-0.30201542 0.63327312 -0.51936293 0 0 0 1.3333209e-38
-0.31637037 0.54560375 -0.71991259 0 0 0 1.3333209e-38
-0.3184247 0.5332346 -0.92407709 0 0 0 1.3333209e-38
0.4405477 -0.57310009 -0.91212547 0 0 0 1.3333209e-38
-0.32248056 0.50759029 -1.1256427 0 0 0 1.3333209e-38
0.43614531 -0.59017181 -1.0980258 0 0 0 1.3333209e-38
0.44334602 -0.56224823 -1.2888755 0 0 0 1.3333209e-38
-0.25895846 0.63211918 -0.51963049 0 0 0 1.3333209e-38
-0.2773124 0.52285099 -0.71891683 0 0 0 1.3333209e-38
-0.27773941 0.52033615 -0.92359787 0 0 0 1.3333209e-38
0.48423004 -0.55974483 -0.91418171 0 0 0 1.3333209e-38
-0.27688742 0.52415085 -1.1279792 0 0 0 1.3333209e-38
0.47874761 -0.58068752 -1.1000886 0 0 0 1.3333209e-38
-0.22632241 0.60625267 -0.51873857 0 0 0 1.3333209e-38
-0.24059069 0.52262974 -0.71929026 0 0 0 1.3333209e-38
-0.24204707 0.51421642 -0.92359787 0 0 0 1.3333209e-38
-0.24084353 0.51998901 -1.1281739 0 0 0 1.3333209e-38
0.12202835 -0.37181759 -0.35214284 0 0 0 1.3333209e-38
-0.17845345 0.6323595 -0.52025485 0 0 0 1.3333209e-38
-0.19616222 0.53106689 -0.72028595 0 0 0 1.3333209e-38
-0.19973612 0.51086044 -0.92391735 0 0 0 1.3333209e-38
-0.19781899 0.5205431 -1.1289527 0 0 0 1.3333209e-38
0.15377545 -0.40967274 -0.35115865 0 0 0 1.3333209e-38
-0.13604927 0.62680912 -0.52034402 0 0 0 1.3333209e-38
-0.14845157 0.55701065 -0.72240192 0 0 0 1.3333209e-38
-0.15033507 0.54658413 -0.92743158 0 0 0 1.3333209e-38
-0.14697838 0.56402683 -1.1340153 0 0 0 1.3333209e-38
-0.092796326 0.65954494 -0.52212787 0 0 0 1.3333209e-38
-0.11264467 0.5504837 -0.72240192 0 0 0 1.3333209e-38
0.21219182 -0.30546474 -0.73828202 0 0 0 1.3333209e-38
-0.1073494 0.57927799 -0.93062633 0 0 0 1.3333209e-38
-0.10862923 0.57119942 -1.1353784 0 0 0 1.3333209e-38
0.21883512 -0.45129585 -0.35030571 0 0 0 1.3333209e-38
-0.044014692 0.68706226 -0.52373332 0 0 0 1.3333209e-38
0.22658372 -0.41811275 -0.54123515 0 0 0 1.3333209e-38
-0.049539328 0.65651608 -0.72962093 0 0 0 1.3333209e-38
0.21949291 -0.44847775 -0.72888154 0 0 0 1.3333209e-38
-0.054830551 0.62832451 -0.93525869 0 0 0 1.3333209e-38
-0.058358669 0.60842419 -1.1398568 0 0 0 1.3333209e-38
0.25321627 -0.47581959 -0.3497808 0 0 0 1.3333209e-38
0.0027427673 0.70260143 -0.52480364 0 0 0 1.3333209e-38
0.20572805 -0.67586613 -0.52831012 0 0 0 1.3333209e-38
-0.0010206699 0.68185616 -0.73173684 0 0 0 1.3333209e-38
0.23960423 -0.53316021 -0.72356814 0 0 0 1.3333209e-38
0.2810986 -0.5030365 -0.34912467 0 0 0 1.3333209e-38
0.23438787 -0.69709301 -0.52760333 0 0 0 1.3333209e-38
0.037848711 0.68858051 -0.73260814 0 0 0 1.3333209e-38
0.26451325 -0.57193947 -0.72138834 0 0 0 1.3333209e-38
0.0083460808 0.53708553 -0.92902893 0 0 0 1.3333209e-38
0.32373238 -0.49281216 -0.3497808 0 0 0 1.3333209e-38
0.27440906 -0.69447136 -0.52820915 0 0 0 1.3333209e-38
0.30451584 -0.57137871 -0.72206956 0 0 0 1.3333209e-38
0.047327042 0.51519775 -0.9279108 0 0 0 1.3333209e-38
0.37563276 -0.44590282 -0.35168356 0 0 0 1.3333209e-38
0.3212254 -0.66486835 -0.53022867 0 0 0 1.3333209e-38
0.33974385 -0.59033871 -0.72138834 0 0 0 1.3333209e-38
-0.36443996 0.64283466 -0.31297237 0 0 0 1.3333209e-38
0.36343431 -0.63218784 -0.53234923 0 0 0 1.3333209e-38
0.37876534 -0.57130527 -0.72329569 0 0 0 1.3333209e-38
-0.33272099 0.57287025 -0.31125125 0 0 0 1.3333209e-38
0.41371131 -0.59136677 -0.53497458 0 0 0 1.3333209e-38
0.41738772 -0.57698917 -0.72356814 0 0 0 1.3333209e-38
-0.29387033 0.54817486 -0.3107672 0 0 0 1.3333209e-38
0.46482372 -0.54884434 -0.53770095 0 0 0 1.3333209e-38
0.46653318 -0.54226017 -0.72670168 0 0 0 1.3333209e-38
-0.26079023 0.52634048 -0.31033692 0 0 0 1.3333209e-38
-0.21395862 0.54866791 -0.3111437 0 0 0 1.3333209e-38
-0.16658545 0.57277107 -0.31200424 0 0 0 1.3333209e-38
0.16612959 -0.4117651 -1.0465887 0 0 0 1.3333209e-38
0.15182757 -0.64585304 -0.46727499 0 0 0 1.3333209e-38
0.19355512 -0.46635246 -0.85347348 0 0 0 1.3333209e-38
0.19133377 -0.47677422 -1.040942 0 0 0 1.3333209e-38
0.17729282 -0.70513821 -0.46495602 0 0 0 1.3333209e-38
0.25339341 -0.38249111 -0.67012608 0 0 0 1.3333209e-38
0.22381258 -0.50821495 -0.85075796 0 0 0 1.3333209e-38
0.22338843 -0.51082706 -1.0384107 0 0 0 1.3333209e-38
0.20310521 -0.73794746 -0.46379653 0 0 0 1.3333209e-38
0.25752378 -0.51065636 -0.66240919 0 0 0 1.3333209e-38
0.2502563 -0.54111481 -0.84868133 0 0 0 1.3333209e-38
0.24105453 -0.58047295 -1.0321798 0 0 0 1.3333209e-38
0.24860358 -0.71190071 -0.46540198 0 0 0 1.3333209e-38
0.28456163 -0.56438065 -0.65954643 0 0 0 1.3333209e-38
0.28471303 -0.56375599 -0.84756321 0 0 0 1.3333209e-38
0.27537203 -0.60305882 -1.0308168 0 0 0 1.3333209e-38
0.29528117 -0.68217278 -0.46718583 0 0 0 1.3333209e-38
0.32365394 -0.56777 -0.65991986 0 0 0 1.3333209e-38
0.32475948 -0.56328297 -0.84836191 0 0 0 1.3333209e-38
0.31431866 -0.60643196 -1.031401 0 0 0 1.3333209e-38
0.34413314 -0.62224007 -0.47030753 0 0 0 1.3333209e-38
0.35108924 -0.59514141 -0.65867519 0 0 0 1.3333209e-38
0.35028291 -0.5983696 -0.84612554 0 0 0 1.3333209e-38
0.34453917 -0.62213135 -1.0306221 0 0 0 1.3333209e-38
0.40810037 -0.52707958 -0.47512388 0 0 0 1.3333209e-38
0.39354253 -0.58524036 -0.65991986 0 0 0 1.3333209e-38
0.39614868 -0.57496357 -0.84884107 0 0 0 1.3333209e-38
0.39128423 -0.59489632 -1.0343217 0 0 0 1.3333209e-38
0.47080612 -0.4399929 -0.47958344 0 0 0 1.3333209e-38
0.43212056 -0.59097862 -0.66016877 0 0 0 1.3333209e-38
0.43774605 -0.5691328 -0.85011899 0 0 0 1.3333209e-38
0.43727016 -0.57172298 -1.0376319 0 0 0 1.3333209e-38
0.47288346 -0.56648827 -0.66228473 0 0 0 1.3333209e-38
0.48208904 -0.53119755 -0.85395265 0 0 0 1.3333209e-38
0.47857237 -0.54541588 -1.0411367 0 0 0 1.3333209e-38
0.22999048 -0.39858437 -0.28855419 0 0 0 1.3333209e-38
0.25496435 -0.4393692 -0.28763983 0 0 0 1.3333209e-38
0.2963562 -0.43485928 -0.28801632 0 0 0 1.3333209e-38
0.34161234 -0.41497707 -0.2888231 0 0 0 1.3333209e-38
