# .PCD v0.7 - Point Cloud Data file format
VERSION 0.7
FIELDS x y z
SIZE 4 4 4
TYPE F F F
COUNT 1 1 1
WIDTH 285
HEIGHT 1
VIEWPOINT 0 0 0 1 0 0 0
POINTS 285
DATA ascii
1.6980563 11.904358 -0.67882037
1.6804931 11.782701 -1.0927964
1.7342938 11.891061 -0.67836946
1.7249004 11.828101 -0.88596952
1.7154895 11.763568 -1.0915164
1.7876405 11.94997 -0.46798137
1.7793422 11.894499 -0.67893308
1.7815182 11.910465 -0.89262205
1.7647806 11.798565 -1.0953566
1.8299127 11.933461 -0.46759436
1.8256497 11.905662 -0.67994761
1.8218352 11.88217 -0.89099586
1.80922 11.799892 -1.0960881
1.8692484 11.9395 -0.46805879
1.8608813 11.886058 -0.67915857
1.8600805 11.882299 -0.89143938
1.8481296 11.805956 -1.0971851
1.9123635 11.928622 -0.46790397
1.9015887 11.861412 -0.67814404
1.8979363 11.839952 -0.88877839
1.8926491 11.806969 -1.0979166
1.9583364 11.935338 -0.46844581
1.9460201 11.860274 -0.67848223
1.9426109 11.84079 -0.88936973
1.9384906 11.815676 -1.0993795
1.9994502 11.950809 -0.46929723
1.9849181 11.86395 -0.6790458
1.9814456 11.844464 -0.89010888
1.9775727 11.821314 -1.1004767
2.0425646 11.939461 -0.46914244
2.0304086 11.868404 -0.67972219
2.0282073 11.856782 -0.8915872
2.0276029 11.853248 -1.104134
2.0903592 11.992049 -0.47146454
2.0745423 11.90131 -0.68197662
2.0764055 11.913229 -0.8963179
2.0703025 11.878212 -1.1070598
2.1392038 12.011852 -0.47254819
2.1377547 12.003716 -0.68828917
2.1225533 11.919564 -1.1116314
2.1875064 12.027526 -0.47347704
2.1842375 12.009553 -0.68907821
2.2248635 12.018339 -0.68997997
2.182893 11.792771 -0.88892621
2.2562225 11.707596 -0.6730715
1.743639 11.807903 -1.0264196
1.7535276 11.874868 -1.2446904
1.8110653 11.960995 -0.25424784
2.3083589 11.746272 -0.67577684
1.7961532 11.86251 -1.0317316
1.7830418 11.775917 -1.2349954
1.8406883 11.903869 -0.2531552
1.8355429 11.870593 -1.0329311
1.8255001 11.805645 -1.2387084
1.8818034 11.881243 -0.252819
1.8756096 11.842136 -1.0310462
1.8675129 11.791016 -1.2378832
1.9181631 11.86935 -0.25269294
1.914075 11.844053 -1.0317316
1.9153368 11.851861 -1.2448968
1.9639373 11.876049 -0.25298709
1.9590983 11.846788 -1.0325884
2.3637021 11.219484 -1.0527492
1.9766144 11.952709 -1.2562422
2.0201235 11.94369 -0.25458404
2.2938395 10.692523 -0.4235518
2.001509 11.833634 -1.0320743
2.4018836 11.197114 -1.0514691
2.0154335 11.915962 -1.253148
2.3206141 10.65402 -0.42231333
2.3752389 10.905719 -0.82727939
2.0430758 11.852816 -1.034302
2.3683875 10.874261 -1.0218451
2.0535345 11.913492 -1.2535605
2.3635399 10.663003 -0.42300996
2.4337168 10.979603 -0.63485825
2.4005203 10.830733 -0.82225305
2.0913441 11.872722 -1.036701
2.3952987 10.807174 -1.0163592
2.0978761 11.909804 -1.253973
2.404804 10.664017 -0.42339697
2.4370444 10.806985 -0.62538946
2.434936 10.798513 -0.82047904
2.145432 11.923812 -1.0418416
2.4239407 10.749751 -1.0117877
2.1439795 11.91574 -1.255417
2.4440889 10.681735 -0.42440322
2.466975 10.781756 -0.62437499
2.4684036 10.788867 -0.82033122
2.4488163 10.703254 -1.0081303
2.5017917 10.752512 -0.42757678
1.6916898 11.925227 -0.60888958
2.5014977 10.751248 -0.62313503
1.6859921 11.885061 -0.81961703
2.5052185 10.768091 -0.81944418
2.4866753 10.688387 -1.0075817
2.5467052 10.766608 -0.4285056
1.7339478 11.909063 -0.60838467
2.5436442 10.753667 -0.62381136
1.7235044 11.837337 -0.81675601
2.5428324 10.751073 -0.81885284
2.5299592 10.696645 -1.0092275
2.6038237 10.855723 -0.43237579
1.7719405 11.907509 -0.60858661
2.5774152 10.745623 -0.62381136
1.7744874 11.924624 -0.82315928
2.5817122 10.764366 -0.82047904
2.57377 10.731251 -1.0132505
1.833969 12.021526 -0.18360393
1.8265586 11.972951 -0.39754677
2.6535327 10.886882 -0.43400127
1.8149693 11.896985 -0.60838467
2.6191468 10.745804 -0.62437499
1.8145703 11.89437 -0.82152438
2.6220927 10.758707 -0.82077473
2.6168573 10.737226 -1.0147134
1.8619584 11.911983 -0.1820339
1.8744425 11.991851 -0.39839974
1.8545516 11.864597 -0.607072
2.665714 10.765206 -0.62606585
1.8532227 11.856096 -0.81934458
2.6826005 10.834211 -0.82727939
2.6700754 10.783627 -1.0200164
1.8927559 11.864604 -0.18139984
1.9061234 11.948398 -0.39715311
1.8911868 11.854768 -0.60687
1.890775 11.852186 -0.81948078
1.9417078 11.891139 -0.18191312
1.9515144 11.951195 -0.39748117
1.9404182 11.883241 -0.60868758
1.933238 11.839269 -0.81907207
1.99055 11.915501 -0.1823962
1.9926697 11.928189 -0.39695626
1.9826429 11.868169 -0.6082837
1.9785907 11.843912 -0.81988955
2.0445623 12.006604 -0.39977759
2.0259535 11.897325 -0.61010128
2.0198092 11.861242 -0.82152438
2.0698884 11.891788 -0.61020225
2.0738764 11.9147 -0.82574785
2.3977098 10.914495 -0.96096176
2.4387386 10.910292 -0.23495862
2.1298978 11.976551 -0.61494815
2.4198754 10.825902 -0.95393622
2.4340796 10.889448 -1.1570216
2.473887 10.906477 -0.23504266
2.1789019 12.032696 -0.61817938
2.4437358 10.773551 -0.94999504
2.448035 10.792505 -1.1475328
2.1749532 11.764791 -0.81689227
2.4818628 10.758698 -0.94948095
2.4795263 10.748569 -1.1438198
1.6987464 11.83237 -0.95778155
2.5135434 10.716549 -0.94656795
2.5139081 10.718103 -1.1415508
1.7456268 11.894618 -0.5366661
1.7412869 11.863605 -0.74766856
1.7298307 11.785553 -0.95442706
2.5518091 10.727984 -0.94828147
1.7348526 11.818331 -1.1684798
2.5466468 10.706283 -1.1411382
1.7901031 11.894067 -0.53693366
1.794265 11.920307 -0.75165147
1.7917099 11.903332 -0.96449047
2.5911119 10.71856 -0.94828147
1.7817129 11.835513 -1.1708163
2.5905447 10.716213 -1.143201
1.8370357 11.909147 -0.53791481
1.8367257 11.905759 -0.75115359
1.8353258 11.896685 -0.96449047
2.6436887 10.763174 -0.95307946
1.8250803 11.828903 -1.1708163
2.6397691 10.747216 -1.1475328
1.8722645 11.889502 -0.53729045
1.8675983 11.858522 -0.74853981
1.8680389 11.86132 -0.96209443
2.6871169 10.793489 -0.95650655
1.8600649 11.809347 -1.1694534
1.9164653 11.886504 -0.53746885
1.912956 11.863421 -0.74928659
1.9140393 11.870139 -0.96337235
1.9096739 11.841752 -1.1733476
2.3113589 10.983387 -0.36841479
1.9619702 11.891229 -0.53800398
1.9560997 11.854361 -0.74916214
1.9552606 11.849276 -0.96225417
1.96149 11.885736 -1.1784102
2.28987 10.714131 -0.35962269
2.0019693 11.900769 -0.53871751
1.9943252 11.854062 -0.74953556
1.9954532 11.860768 -0.96369183
1.9961783 11.863811 -1.1768525
2.3295488 10.70762 -0.35968831
2.051332 11.926826 -0.54023379
2.0421581 11.872248 -0.75115359
2.3690805 10.889324 -0.76089782
2.0429673 11.876952 -0.96560866
2.0443726 11.88388 -1.1795784
2.3886552 10.788786 -0.36270648
2.0967615 11.929067 -0.54067975
2.4292083 10.971951 -0.56809497
2.0898054 11.888274 -0.75264716
2.3990552 10.83576 -0.75776428
2.0906267 11.892946 -0.96752548
2.0868814 11.870425 -1.1789943
2.4361224 10.841688 -0.36474046
2.1458457 11.987323 -0.54362303
2.4343259 10.833693 -0.56132954
2.1605611 12.068315 -0.76447147
2.428273 10.806755 -0.75626564
2.1374938 11.938266 -1.1863935
2.4745066 10.82684 -0.36454365
2.1994672 12.032445 -0.54603124
2.4646709 10.783805 -0.55920899
2.1893437 11.975881 -0.75911945
2.4638643 10.780275 -0.75503951
2.5152805 10.848222 -0.36552781
2.495379 10.762388 -0.5585022
2.2192883 11.927732 -0.75650567
2.4981699 10.774426 -0.75517577
2.5655727 10.883678 -0.36703691
2.5306838 10.735672 -0.55759341
2.2454915 11.827347 -0.75065571
2.5367277 10.761312 -0.75490326
2.5742035 10.743807 -0.5585022
2.2687118 11.715172 -0.74405903
2.5738282 10.742241 -0.7542221
2.6173446 10.749826 -0.55930996
2.6259282 10.785081 -0.75790054
2.2401528 11.343732 -1.1310947
1.8690646 12.006884 -0.11155904
1.8564742 11.926003 -0.32469741
2.6621115 10.786154 -0.56163245
2.6736631 10.832957 -0.76185149
2.2612839 11.264431 -1.1238902
1.9010949 11.924904 -0.11086134
1.8995433 11.91517 -0.32458985
2.3057461 11.271668 -1.125448
1.9438229 11.911934 -0.11080626
1.9396598 11.886423 -0.32399821
2.3405464 11.231963 -1.1223325
1.977977 11.886187 -0.32415956
2.369226 11.193397 -1.119217
2.3583765 10.944913 -0.89708161
2.4161065 11.21188 -1.1219431
2.3818197 10.86025 -0.89085186
2.395349 10.921028 -1.0937095
2.3832998 10.707031 -0.48966211
2.4128988 10.839113 -0.69240552
2.4111612 10.831308 -0.88909477
2.4175351 10.859047 -1.0882576
2.4189968 10.682634 -0.48894858
2.4433515 10.789313 -0.68979174
2.4451196 10.797121 -0.8870182
2.4450085 10.795756 -1.0828055
2.4561245 10.69056 -0.48966211
2.479023 10.789366 -0.69028962
2.4754562 10.773842 -0.88574028
2.4668765 10.735643 -1.0775483
2.5011995 10.706779 -0.4908216
2.5171888 10.774376 -0.68991619
2.5153811 10.766639 -0.88590002
2.5066609 10.728468 -1.0777429
2.5459647 10.720868 -0.49189189
2.5529721 10.74954 -0.6889205
2.552062 10.745708 -0.88494158
2.544126 10.711462 -1.0769641
2.5936794 10.746425 -0.49349734
2.5946958 10.749813 -0.68954283
2.5951719 10.751786 -0.8862195
2.5931768 10.742699 -1.0810531
2.6302767 10.749867 -0.4940325
2.6327245 10.759059 -0.69066304
2.6388879 10.784246 -0.88957399
2.6354299 10.7693 -1.084558
2.6807446 10.784752 -0.49608392
2.6865873 10.807452 -0.69439697
2.2929606 10.930035 -0.30044058
2.3330059 10.921556 -0.30044058
2.3651865 10.904405 -0.30017164
2.3986728 10.866378 -0.29936486
2.4389222 10.859464 -0.29941866
2.4755909 10.836808 -0.29904217
2.5132344 10.844559 -0.29947245
2.5685542 10.901439 -0.30130112
