# .PCD v0.7 - Point Cloud Data file format
VERSION 0.7
FIELDS x y z normal_x normal_y normal_z curvature
SIZE 4 4 4 4 4 4 4
TYPE F F F F F F F
COUNT 1 1 1 1 1 1 1
WIDTH 285
HEIGHT 1
VIEWPOINT 0 0 0 1 0 0 0
POINTS 285
DATA ascii
-0.48574865 0.54319 -0.67882037 0 0 0 1.9491927e-38
-0.50331187 0.42153263 -1.0927964 0 0 0 1.9491927e-38
-0.44951117 0.52989292 -0.67836946 0 0 0 1.9491927e-38
-0.45890462 0.46693325 -0.88596952 0 0 0 1.9491927e-38
-0.46831548 0.40240002 -1.0915164 0 0 0 1.9491927e-38
-0.39616454 0.58880234 -0.46798137 0 0 0 1.9491927e-38
-0.40446281 0.53333092 -0.67893308 0 0 0 1.9491927e-38
-0.40228677 0.54929733 -0.89262205 0 0 0 1.9491927e-38
-0.41902435 0.437397 -1.0953566 0 0 0 1.9491927e-38
-0.35389233 0.57229328 -0.46759436 0 0 0 1.9491927e-38
-0.35815525 0.54449368 -0.67994761 0 0 0 1.9491927e-38
-0.36196983 0.52100182 -0.89099586 0 0 0 1.9491927e-38
-0.37458503 0.43872452 -1.0960881 0 0 0 1.9491927e-38
-0.3145566 0.57833195 -0.46805879 0 0 0 1.9491927e-38
-0.32292366 0.52488995 -0.67915857 0 0 0 1.9491927e-38
-0.32372451 0.52113152 -0.89143938 0 0 0 1.9491927e-38
-0.33567536 0.44478798 -1.0971851 0 0 0 1.9491927e-38
-0.27144146 0.56745434 -0.46790397 0 0 0 1.9491927e-38
-0.28221631 0.50024414 -0.67814404 0 0 0 1.9491927e-38
-0.28586864 0.47878456 -0.88877839 0 0 0 1.9491927e-38
-0.29115593 0.44580078 -1.0979166 0 0 0 1.9491927e-38
-0.22546864 0.57417011 -0.46844581 0 0 0 1.9491927e-38
-0.23778486 0.49910641 -0.67848223 0 0 0 1.9491927e-38
-0.24119413 0.47962189 -0.88936973 0 0 0 1.9491927e-38
-0.24531436 0.45450783 -1.0993795 0 0 0 1.9491927e-38
-0.18435478 0.58964062 -0.46929723 0 0 0 1.9491927e-38
-0.19888687 0.50278187 -0.6790458 0 0 0 1.9491927e-38
-0.20235944 0.48329639 -0.89010888 0 0 0 1.9491927e-38
-0.20623231 0.46014595 -1.1004767 0 0 0 1.9491927e-38
-0.14124036 0.57829285 -0.46914244 0 0 0 1.9491927e-38
-0.15339637 0.50723648 -0.67972219 0 0 0 1.9491927e-38
-0.15559769 0.49561405 -0.8915872 0 0 0 1.9491927e-38
-0.15620208 0.49207973 -1.104134 0 0 0 1.9491927e-38
-0.093445778 0.63088131 -0.47146454 0 0 0 1.9491927e-38
-0.1092627 0.54014206 -0.68197662 0 0 0 1.9491927e-38
-0.10739946 0.55206108 -0.8963179 0 0 0 1.9491927e-38
-0.1135025 0.51704407 -1.1070598 0 0 0 1.9491927e-38
-0.044601202 0.65068436 -0.47254819 0 0 0 1.9491927e-38
-0.04605031 0.64254856 -0.68828917 0 0 0 1.9491927e-38
-0.06125164 0.55839634 -1.1116314 0 0 0 1.9491927e-38
0.0037014484 0.66635799 -0.47347704 0 0 0 1.9491927e-38
0.0004324913 0.64838505 -0.68907821 0 0 0 1.9491927e-38
0.04105854 0.65717125 -0.68997997 0 0 0 1.9491927e-38
-0.00091195107 0.43160343 -0.88892621 0 0 0 1.9491927e-38
0.072417498 0.34642792 -0.6730715 0 0 0 1.9491927e-38
-0.440166 0.44673538 -1.0264196 0 0 0 1.9491927e-38
-0.43027735 0.51370049 -1.2446904 0 0 0 1.9491927e-38
-0.37273967 0.59982681 -0.25424784 0 0 0 1.9491927e-38
0.12455392 0.38510418 -0.67577684 0 0 0 1.9491927e-38
-0.3876518 0.50134182 -1.0317316 0 0 0 1.9491927e-38
-0.40076315 0.41474915 -1.2349954 0 0 0 1.9491927e-38
-0.34311664 0.54270077 -0.2531552 0 0 0 1.9491927e-38
-0.34826207 0.50942516 -1.0329311 0 0 0 1.9491927e-38
-0.35830486 0.44447708 -1.2387084 0 0 0 1.9491927e-38
-0.3020016 0.52007484 -0.252819 0 0 0 1.9491927e-38
-0.30819535 0.48096848 -1.0310462 0 0 0 1.9491927e-38
-0.31629205 0.42984772 -1.2378832 0 0 0 1.9491927e-38
-0.26564193 0.50818253 -0.25269294 0 0 0 1.9491927e-38
-0.26972997 0.48288536 -1.0317316 0 0 0 1.9491927e-38
-0.26846814 0.49069309 -1.2448968 0 0 0 1.9491927e-38
-0.21986771 0.51488113 -0.25298709 0 0 0 1.9491927e-38
-0.22470665 0.4856205 -1.0325884 0 0 0 1.9491927e-38
0.17989707 -0.14168358 -1.0527492 0 0 0 1.9491927e-38
-0.20719063 0.59154129 -1.2562422 0 0 0 1.9491927e-38
-0.16368151 0.58252239 -0.25458404 0 0 0 1.9491927e-38
0.11003447 -0.66864491 -0.4235518 0 0 0 1.9491927e-38
-0.18229604 0.47246647 -1.0320743 0 0 0 1.9491927e-38
0.21807861 -0.16405392 -1.0514691 0 0 0 1.9491927e-38
-0.16837144 0.55479431 -1.253148 0 0 0 1.9491927e-38
0.13680911 -0.7071476 -0.42231333 0 0 0 1.9491927e-38
0.19143391 -0.4554491 -0.82727939 0 0 0 1.9491927e-38
-0.14072919 0.49164772 -1.034302 0 0 0 1.9491927e-38
0.18458247 -0.48690701 -1.0218451 0 0 0 1.9491927e-38
-0.13027048 0.5523243 -1.2535605 0 0 0 1.9491927e-38
0.17973495 -0.69816494 -0.42300996 0 0 0 1.9491927e-38
0.24991179 -0.38156509 -0.63485825 0 0 0 1.9491927e-38
0.21671534 -0.53043461 -0.82225305 0 0 0 1.9491927e-38
-0.092460871 0.51155376 -1.036701 0 0 0 1.9491927e-38
0.21149373 -0.55399418 -1.0163592 0 0 0 1.9491927e-38
-0.085928917 0.54863644 -1.253973 0 0 0 1.9491927e-38
0.220999 -0.69715118 -0.42339697 0 0 0 1.9491927e-38
0.25323939 -0.55418301 -0.62538946 0 0 0 1.9491927e-38
0.25113106 -0.5626545 -0.82047904 0 0 0 1.9491927e-38
-0.038372993 0.562644 -1.0418416 0 0 0 1.9491927e-38
0.24013567 -0.61141682 -1.0117877 0 0 0 1.9491927e-38
-0.039825439 0.55457211 -1.255417 0 0 0 1.9491927e-38
0.26028395 -0.67943287 -0.42440322 0 0 0 1.9491927e-38
0.28316998 -0.57941151 -0.62437499 0 0 0 1.9491927e-38
0.28459859 -0.57230091 -0.82033122 0 0 0 1.9491927e-38
0.26501131 -0.65791416 -1.0081303 0 0 0 1.9491927e-38
0.31798673 -0.60865593 -0.42757678 0 0 0 1.9491927e-38
-0.49211514 0.56405926 -0.60888958 0 0 0 1.9491927e-38
0.31769276 -0.60991955 -0.62313503 0 0 0 1.9491927e-38
-0.49781287 0.52389336 -0.81961703 0 0 0 1.9491927e-38
0.32141352 -0.59307671 -0.81944418 0 0 0 1.9491927e-38
0.30287027 -0.67278099 -1.0075817 0 0 0 1.9491927e-38
0.36290026 -0.59455967 -0.4285056 0 0 0 1.9491927e-38
-0.44985723 0.54789543 -0.60838467 0 0 0 1.9491927e-38
0.3598392 -0.60750103 -0.62381136 0 0 0 1.9491927e-38
-0.46030056 0.47616863 -0.81675601 0 0 0 1.9491927e-38
0.35902739 -0.61009502 -0.81885284 0 0 0 1.9491927e-38
0.34615421 -0.66452312 -1.0092275 0 0 0 1.9491927e-38
0.42001867 -0.50544453 -0.43237579 0 0 0 1.9491927e-38
-0.41186452 0.54634094 -0.60858661 0 0 0 1.9491927e-38
0.39361024 -0.61554527 -0.62381136 0 0 0 1.9491927e-38
-0.40931761 0.56345654 -0.82315928 0 0 0 1.9491927e-38
0.39790726 -0.59680176 -0.82047904 0 0 0 1.9491927e-38
0.38996506 -0.62991714 -1.0132505 0 0 0 1.9491927e-38
-0.34983599 0.66035843 -0.18360393 0 0 0 1.9491927e-38
-0.3572464 0.61178303 -0.39754677 0 0 0 1.9491927e-38
0.46972775 -0.47428608 -0.43400127 0 0 0 1.9491927e-38
-0.36883569 0.53581715 -0.60838467 0 0 0 1.9491927e-38
0.43534184 -0.61536407 -0.62437499 0 0 0 1.9491927e-38
-0.36923468 0.53320217 -0.82152438 0 0 0 1.9491927e-38
0.43828773 -0.60246086 -0.82077473 0 0 0 1.9491927e-38
0.4330523 -0.62394238 -1.0147134 0 0 0 1.9491927e-38
-0.3218466 0.55081463 -0.1820339 0 0 0 1.9491927e-38
-0.30936253 0.63068295 -0.39839974 0 0 0 1.9491927e-38
-0.32925344 0.50342941 -0.607072 0 0 0 1.9491927e-38
0.48190904 -0.59596157 -0.62606585 0 0 0 1.9491927e-38
-0.33058226 0.49492836 -0.81934458 0 0 0 1.9491927e-38
0.49879551 -0.52695656 -0.82727939 0 0 0 1.9491927e-38
0.48627043 -0.57754135 -1.0200164 0 0 0 1.9491927e-38
-0.29104912 0.50343609 -0.18139984 0 0 0 1.9491927e-38
-0.27768159 0.58722973 -0.39715311 0 0 0 1.9491927e-38
-0.29261816 0.49359989 -0.60687 0 0 0 1.9491927e-38
-0.29303002 0.4910183 -0.81948078 0 0 0 1.9491927e-38
-0.24209714 0.52997112 -0.18191312 0 0 0 1.9491927e-38
-0.23229063 0.59002686 -0.39748117 0 0 0 1.9491927e-38
-0.24338675 0.52207279 -0.60868758 0 0 0 1.9491927e-38
-0.25056696 0.47810078 -0.81907207 0 0 0 1.9491927e-38
-0.19325495 0.55433273 -0.1823962 0 0 0 1.9491927e-38
-0.19113529 0.56702137 -0.39695626 0 0 0 1.9491927e-38
-0.2011621 0.50700092 -0.6082837 0 0 0 1.9491927e-38
-0.20521426 0.48274422 -0.81988955 0 0 0 1.9491927e-38
-0.13924265 0.64543629 -0.39977759 0 0 0 1.9491927e-38
-0.15785146 0.53615665 -0.61010128 0 0 0 1.9491927e-38
-0.16399574 0.50007439 -0.82152438 0 0 0 1.9491927e-38
-0.11391664 0.53061962 -0.61020225 0 0 0 1.9491927e-38
-0.10992861 0.55353165 -0.82574785 0 0 0 1.9491927e-38
0.21390486 -0.44667244 -0.96096176 0 0 0 1.9491927e-38
0.2549336 -0.45087624 -0.23495862 0 0 0 1.9491927e-38
-0.053907156 0.61538315 -0.61494815 0 0 0 1.9491927e-38
0.23607039 -0.53526592 -0.95393622 0 0 0 1.9491927e-38
0.25027466 -0.47171974 -1.1570216 0 0 0 1.9491927e-38
0.29008198 -0.45469093 -0.23504266 0 0 0 1.9491927e-38
-0.0049030781 0.67152786 -0.61817938 0 0 0 1.9491927e-38
0.25993085 -0.58761692 -0.94999504 0 0 0 1.9491927e-38
0.26423001 -0.56866264 -1.1475328 0 0 0 1.9491927e-38
-0.0088517666 0.40362263 -0.81689227 0 0 0 1.9491927e-38
0.29805779 -0.60246944 -0.94948095 0 0 0 1.9491927e-38
0.29572129 -0.61259937 -1.1438198 0 0 0 1.9491927e-38
-0.48505855 0.4712019 -0.95778155 0 0 0 1.9491927e-38
0.32973838 -0.64461899 -0.94656795 0 0 0 1.9491927e-38
0.33010316 -0.6430645 -1.1415508 0 0 0 1.9491927e-38
-0.43817818 0.53345013 -0.5366661 0 0 0 1.9491927e-38
-0.44251812 0.50243664 -0.74766856 0 0 0 1.9491927e-38
-0.45397425 0.42438507 -0.95442706 0 0 0 1.9491927e-38
0.36800408 -0.63318348 -0.94828147 0 0 0 1.9491927e-38
-0.44895244 0.45716286 -1.1684798 0 0 0 1.9491927e-38
0.36284184 -0.65488529 -1.1411382 0 0 0 1.9491927e-38
-0.39370191 0.5328989 -0.53693366 0 0 0 1.9491927e-38
-0.38953996 0.55913925 -0.75165147 0 0 0 1.9491927e-38
-0.39209509 0.54216385 -0.96449047 0 0 0 1.9491927e-38
0.40730691 -0.64260769 -0.94828147 0 0 0 1.9491927e-38
-0.4020921 0.47434521 -1.1708163 0 0 0 1.9491927e-38
0.40673971 -0.64495468 -1.143201 0 0 0 1.9491927e-38
-0.34676933 0.54797935 -0.53791481 0 0 0 1.9491927e-38
-0.34707928 0.54459095 -0.75115359 0 0 0 1.9491927e-38
-0.34847915 0.53551674 -0.96449047 0 0 0 1.9491927e-38
0.45988369 -0.59799385 -0.95307946 0 0 0 1.9491927e-38
-0.35872471 0.46773529 -1.1708163 0 0 0 1.9491927e-38
0.45596409 -0.61395168 -1.1475328 0 0 0 1.9491927e-38
-0.31154048 0.52833366 -0.53729045 0 0 0 1.9491927e-38
-0.31620669 0.49735451 -0.74853981 0 0 0 1.9491927e-38
-0.3157661 0.50015163 -0.96209443 0 0 0 1.9491927e-38
0.50331187 -0.56767845 -0.95650655 0 0 0 1.9491927e-38
-0.32374012 0.44817924 -1.1694534 0 0 0 1.9491927e-38
-0.26733971 0.52533627 -0.53746885 0 0 0 1.9491927e-38
-0.27084899 0.50225353 -0.74928659 0 0 0 1.9491927e-38
-0.26976573 0.50897121 -0.96337235 0 0 0 1.9491927e-38
-0.27413106 0.48058414 -1.1733476 0 0 0 1.9491927e-38
0.12755394 -0.37778091 -0.36841479 0 0 0 1.9491927e-38
-0.22183478 0.53006077 -0.53800398 0 0 0 1.9491927e-38
-0.22770524 0.49319267 -0.74916214 0 0 0 1.9491927e-38
-0.22854435 0.48810768 -0.96225417 0 0 0 1.9491927e-38
-0.22231495 0.52456856 -1.1784102 0 0 0 1.9491927e-38
0.10606503 -0.64703655 -0.35962269 0 0 0 1.9491927e-38
-0.18183565 0.53960133 -0.53871751 0 0 0 1.9491927e-38
-0.18947983 0.49289417 -0.74953556 0 0 0 1.9491927e-38
-0.18835175 0.49960041 -0.96369183 0 0 0 1.9491927e-38
-0.18762672 0.50264263 -1.1768525 0 0 0 1.9491927e-38
0.14574385 -0.65354824 -0.35968831 0 0 0 1.9491927e-38
-0.13247299 0.56565762 -0.54023379 0 0 0 1.9491927e-38
-0.14164686 0.51107979 -0.75115359 0 0 0 1.9491927e-38
0.18527555 -0.47184372 -0.76089782 0 0 0 1.9491927e-38
-0.14083767 0.51578426 -0.96560866 0 0 0 1.9491927e-38
-0.13943243 0.52271175 -1.1795784 0 0 0 1.9491927e-38
0.2048502 -0.57238197 -0.36270648 0 0 0 1.9491927e-38
-0.087043524 0.56789875 -0.54067975 0 0 0 1.9491927e-38
0.24540329 -0.38921738 -0.56809497 0 0 0 1.9491927e-38
-0.093999624 0.52710629 -0.75264716 0 0 0 1.9491927e-38
0.21525025 -0.52540779 -0.75776428 0 0 0 1.9491927e-38
-0.093178272 0.53177834 -0.96752548 0 0 0 1.9491927e-38
-0.09692359 0.50925732 -1.1789943 0 0 0 1.9491927e-38
0.25231743 -0.51947975 -0.36474046 0 0 0 1.9491927e-38
-0.037959337 0.6261549 -0.54362303 0 0 0 1.9491927e-38
0.25052094 -0.52747536 -0.56132954 0 0 0 1.9491927e-38
-0.023243904 0.70714664 -0.76447147 0 0 0 1.9491927e-38
0.24446797 -0.55441284 -0.75626564 0 0 0 1.9491927e-38
-0.04631114 0.57709789 -1.1863935 0 0 0 1.9491927e-38
0.29070163 -0.53432751 -0.36454365 0 0 0 1.9491927e-38
0.015662193 0.67127705 -0.54603124 0 0 0 1.9491927e-38
0.28086591 -0.57736301 -0.55920899 0 0 0 1.9491927e-38
0.005538702 0.61471272 -0.75911945 0 0 0 1.9491927e-38
0.28005934 -0.58089256 -0.75503951 0 0 0 1.9491927e-38
0.3314755 -0.51294613 -0.36552781 0 0 0 1.9491927e-38
0.31157398 -0.59877968 -0.5585022 0 0 0 1.9491927e-38
0.03548336 0.56656456 -0.75650567 0 0 0 1.9491927e-38
0.31436491 -0.58674145 -0.75517577 0 0 0 1.9491927e-38
0.38176775 -0.47748947 -0.36703691 0 0 0 1.9491927e-38
0.34687877 -0.62549591 -0.55759341 0 0 0 1.9491927e-38
0.061686516 0.46617889 -0.75065571 0 0 0 1.9491927e-38
0.35292268 -0.59985638 -0.75490326 0 0 0 1.9491927e-38
0.3903985 -0.61736107 -0.5585022 0 0 0 1.9491927e-38
0.084906816 0.35400391 -0.74405903 0 0 0 1.9491927e-38
0.39002323 -0.618927 -0.7542221 0 0 0 1.9491927e-38
0.43353963 -0.61134148 -0.55930996 0 0 0 1.9491927e-38
0.44212317 -0.576087 -0.75790054 0 0 0 1.9491927e-38
0.056347847 -0.017436028 -1.1310947 0 0 0 1.9491927e-38
-0.31474042 0.64571571 -0.11155904 0 0 0 1.9491927e-38
-0.32733083 0.56483555 -0.32469741 0 0 0 1.9491927e-38
0.47830653 -0.57501411 -0.56163245 0 0 0 1.9491927e-38
0.48985815 -0.52821064 -0.76185149 0 0 0 1.9491927e-38
0.077478886 -0.096736908 -1.1238902 0 0 0 1.9491927e-38
-0.28271008 0.56373596 -0.11086134 0 0 0 1.9491927e-38
-0.2842617 0.55400181 -0.32458985 0 0 0 1.9491927e-38
0.12194109 -0.089499474 -1.125448 0 0 0 1.9491927e-38
-0.23998213 0.55076599 -0.11080626 0 0 0 1.9491927e-38
-0.24414515 0.5252552 -0.32399821 0 0 0 1.9491927e-38
0.15674138 -0.12920475 -1.1223325 0 0 0 1.9491927e-38
-0.20582795 0.52501869 -0.32415956 0 0 0 1.9491927e-38
0.18542099 -0.16777134 -1.119217 0 0 0 1.9491927e-38
0.17457151 -0.416255 -0.89708161 0 0 0 1.9491927e-38
0.23230147 -0.14928818 -1.1219431 0 0 0 1.9491927e-38
0.19801474 -0.50091743 -0.89085186 0 0 0 1.9491927e-38
0.21154404 -0.44013977 -1.0937095 0 0 0 1.9491927e-38
0.19949484 -0.65413666 -0.48966211 0 0 0 1.9491927e-38
0.22909379 -0.52205467 -0.69240552 0 0 0 1.9491927e-38
0.2273562 -0.52985954 -0.88909477 0 0 0 1.9491927e-38
0.23373008 -0.50212097 -1.0882576 0 0 0 1.9491927e-38
0.23519182 -0.67853355 -0.48894858 0 0 0 1.9491927e-38
0.25954652 -0.57185459 -0.68979174 0 0 0 1.9491927e-38
0.26131463 -0.56404686 -0.8870182 0 0 0 1.9491927e-38
0.26120353 -0.56541157 -1.0828055 0 0 0 1.9491927e-38
0.27231956 -0.67060757 -0.48966211 0 0 0 1.9491927e-38
0.29521799 -0.57180214 -0.69028962 0 0 0 1.9491927e-38
0.29165125 -0.58732605 -0.88574028 0 0 0 1.9491927e-38
0.28307152 -0.62552452 -1.0775483 0 0 0 1.9491927e-38
0.3173945 -0.65438938 -0.4908216 0 0 0 1.9491927e-38
0.3333838 -0.58679199 -0.68991619 0 0 0 1.9491927e-38
0.33157611 -0.59452915 -0.88590002 0 0 0 1.9491927e-38
0.32285595 -0.63269997 -1.0777429 0 0 0 1.9491927e-38
0.36215973 -0.6402998 -0.49189189 0 0 0 1.9491927e-38
0.36916709 -0.61162758 -0.6889205 0 0 0 1.9491927e-38
0.36825705 -0.61545944 -0.88494158 0 0 0 1.9491927e-38
0.36032104 -0.64970589 -1.0769641 0 0 0 1.9491927e-38
0.40987444 -0.61474323 -0.49349734 0 0 0 1.9491927e-38
0.41089082 -0.61135483 -0.68954283 0 0 0 1.9491927e-38
0.41136694 -0.60938168 -0.8862195 0 0 0 1.9491927e-38
0.40937185 -0.61846924 -1.0810531 0 0 0 1.9491927e-38
0.44647169 -0.61130047 -0.4940325 0 0 0 1.9491927e-38
0.44891953 -0.60210896 -0.69066304 0 0 0 1.9491927e-38
0.45508289 -0.57692146 -0.88957399 0 0 0 1.9491927e-38
0.45162487 -0.59186745 -1.084558 0 0 0 1.9491927e-38
0.49693966 -0.57641602 -0.49608392 0 0 0 1.9491927e-38
0.50278234 -0.55371571 -0.69439697 0 0 0 1.9491927e-38
0.10915565 -0.43113327 -0.30044058 0 0 0 1.9491927e-38
0.14920092 -0.43961143 -0.30044058 0 0 0 1.9491927e-38
0.18138146 -0.45676327 -0.30017164 0 0 0 1.9491927e-38
0.21486783 -0.49479008 -0.29936486 0 0 0 1.9491927e-38
0.25511718 -0.50170422 -0.29941866 0 0 0 1.9491927e-38
0.29178596 -0.5243597 -0.29904217 0 0 0 1.9491927e-38
0.32942939 -0.51660919 -0.29947245 0 0 0 1.9491927e-38
0.38474917 -0.45972919 -0.30130112 0 0 0 1.9491927e-38
