# .PCD v0.7 - Point Cloud Data file format
VERSION 0.7
FIELDS x y z
SIZE 4 4 4
TYPE F F F
COUNT 1 1 1
WIDTH 873
HEIGHT 1
VIEWPOINT 0 0 0 1 0 0 0
POINTS 873
DATA ascii
6.392796 7.8635292 -1.2414384
6.3860412 7.804996 -1.2353588
6.3902464 7.7630243 -1.2317111
6.4082704 7.7352667 -1.2304952
6.4452519 7.7303433 -1.232927
6.4758859 7.7176604 -1.2341429
6.5115619 7.713582 -1.2365748
6.5421886 7.7006512 -1.2377906
6.5585599 7.6736612 -1.2365748
6.5632167 7.6304431 -1.232927
6.4234548 7.4232903 -1.2025294
6.3945971 7.3431902 -1.1928022
6.3914671 7.2932053 -1.1879386
6.4077826 7.265646 -1.1867228
6.4371653 7.2529025 -1.1879386
6.4863672 7.2622557 -1.1928022
6.5543237 7.294662 -1.2013136
6.6038365 7.303484 -1.2061772
6.6200681 7.2753601 -1.2049613
6.6617312 7.2776504 -1.208609
6.6900187 7.2651544 -1.2098249
6.652091 7.1785769 -1.1988817
6.390296 6.8527536 -1.1478137
6.4253778 6.8471203 -1.1502455
6.4673014 6.8485503 -1.1538932
6.5161347 6.8569794 -1.1587569
6.5719447 6.8723431 -1.1648364
6.6072669 6.8659663 -1.1672682
6.6414175 6.8605957 -1.1697
6.6837163 6.8610263 -1.1733477
6.7191353 6.8541718 -1.1757796
6.7533803 6.84834 -1.1782113
6.5121217 6.2449007 -1.1052572
6.5173373 6.2107153 -1.1028253
6.5285296 6.1845245 -1.1016093
6.3852406 5.8284831 -1.0590527
6.3888159 5.7950563 -1.056621
6.4069896 5.7749567 -1.056621
6.4472823 5.7746673 -1.0602686
6.5024633 5.7873793 -1.0663481
6.9155879 5.8565497 -1.1101208
6.9643312 5.8603582 -1.1149844
7.0055523 5.8575506 -1.1186321
7.0544577 5.8608851 -1.1234957
7.1177378 5.8778501 -1.1307912
7.1438413 5.8617558 -1.132007
7.1929932 5.8643727 -1.1368706
7.24892 5.8742499 -1.1429501
7.2895074 5.8713956 -1.1465977
7.3389158 5.8732734 -1.1514614
6.3760734 11.008159 -1.113112
6.3484845 10.885926 -1.1026521
6.3624697 10.83157 -1.0991654
6.3913941 10.802954 -1.0982938
6.3998046 10.740033 -1.0939355
6.4060187 10.678284 -1.0895772
6.4034719 10.59842 -1.0834755
6.4367361 10.578251 -1.0834755
6.4803472 10.574965 -1.0852189
6.5240002 10.571509 -1.0869621
6.2525458 9.8600416 -1.0215875
6.2620459 9.8067646 -1.0181009
6.2587981 9.7378607 -1.0128709
6.2622967 9.6763334 -1.0085126
6.265471 9.6148815 -1.0041543
6.268321 9.553504 -0.99979597
6.2472329 9.4600487 -0.99195111
6.2438264 9.3906021 -0.9867211
6.2455883 9.3295488 -0.98236275
6.2525964 9.2768383 -0.97887611
6.2577248 9.2252693 -0.97538948
6.2698212 9.1808844 -0.97277451
6.4618249 9.3390245 -0.99369437
6.508215 9.3432007 -0.99630934
6.4517407 9.2003632 -0.98323447
6.4518862 9.1393576 -0.97887611
6.4574838 9.0865622 -0.97538948
6.4438519 9.0106411 -0.96928787
6.4546671 8.9660988 -0.9666729
6.4594207 8.9135103 -0.96318626
6.4815202 8.8851252 -0.96231461
6.4783797 8.8257017 -0.95795625
6.4823952 8.7732573 -0.95446962
6.4786787 8.7140121 -0.95011127
6.4821472 8.6617126 -0.94662464
6.4793577 8.6015205 -0.94226629
6.4461594 8.5017414 -0.93354976
6.3082128 8.2687311 -0.91001487
6.3341589 8.2488728 -0.91001487
6.4575138 8.3550463 -0.9239614
6.5020804 8.3583078 -0.92657644
6.5405893 8.3535271 -0.92831975
6.5900044 8.3653851 -0.93180639
6.6209841 8.3536024 -0.93267804
6.3924899 8.0134678 -0.89693993
6.4488168 8.0321875 -0.90129828
6.4928017 8.0351334 -0.90391326
6.4048748 7.8755779 -0.88822329
6.3854175 7.8014555 -0.88212168
6.3768735 7.7440238 -0.87776339
6.3757439 7.6932712 -0.8742767
6.3871202 7.6579032 -0.87253344
6.3983369 7.622539 -0.87079006
6.3952165 7.5730767 -0.86730343
6.3931713 7.5225844 -0.8638168
6.3960419 7.4808674 -0.86120182
6.3935223 7.4305315 -0.85771519
6.3959808 7.3889322 -0.85510015
6.4191623 7.3688025 -0.85510015
6.4488473 7.356091 -0.85597181
6.4851069 7.3507357 -0.85771519
6.5478511 7.3750229 -0.86294508
6.6240873 7.4138451 -0.86991841
6.4795713 7.2089338 -0.84812683
6.3885822 7.0629458 -0.83330858
6.3973279 7.0281072 -0.83156532
6.4181528 7.0090952 -0.83156532
6.4591689 7.0120025 -0.8341803
6.4947109 7.0062876 -0.83592361
6.5302796 7.0004182 -0.83766693
6.5726948 7.001657 -0.8402819
6.5946584 6.9809737 -0.8402819
6.6302848 6.9746623 -0.84202522
6.5970731 6.8962102 -0.83505195
6.4114394 6.6601439 -0.80890208
6.4103818 6.6196232 -0.80628711
6.4172411 6.5851817 -0.80454373
6.4239473 6.5507641 -0.80280048
6.4153709 6.5033078 -0.79931384
6.4206047 6.4701014 -0.79757047
6.4197817 6.4287515 -0.79495549
6.4328847 6.4015245 -0.79408383
6.4387975 6.3672743 -0.79234058
6.4434533 6.3341742 -0.7905972
6.4490685 6.2999783 -0.78885388
6.4688287 6.2796869 -0.78885388
6.4741855 6.2455001 -0.78711057
6.4650087 6.1975555 -0.78362387
6.3113365 6.0123048 -0.76270401
6.3002143 5.9661536 -0.75921738
6.2971616 5.9258499 -0.75660235
6.3074417 5.9003348 -0.75573075
6.3040571 5.8601427 -0.75311571
6.3151193 5.8335495 -0.75224411
6.3334146 5.8136811 -0.75224411
6.3212008 5.7680054 -0.74875748
6.3688102 5.7748842 -0.75224411
6.4979329 5.8548737 -0.76531899
6.5459819 5.8610115 -0.76880562
6.5866895 5.8602834 -0.7714206
6.6125317 5.8461599 -0.77229232
6.5774684 5.7804813 -0.76619071
6.5880919 5.7532363 -0.76531899
6.6201797 5.7467241 -0.76706237
6.6759167 5.7584314 -0.7714206
6.7005358 5.7450829 -0.77229232
6.6806364 5.6917014 -0.76793396
6.6984844 5.6706858 -0.76793396
6.7238898 5.6560264 -0.76880562
6.7416258 5.6348748 -0.76880562
6.7899489 5.6391273 -0.77229232
6.8220162 5.63164 -0.77403563
6.8858881 5.6480865 -0.77926558
6.9499316 5.664187 -0.78449559
7.1292639 5.7752242 -0.80280048
7.138608 5.7477984 -0.80192882
7.3511038 5.8809228 -0.82372034
7.4319305 5.9073896 -0.83069366
7.4660888 5.8963609 -0.83243698
7.5237613 5.9036245 -0.83679521
7.5815535 5.910584 -0.84115356
7.6148071 5.9002657 -0.84289694
7.6411986 5.882391 -0.84376854
7.7150316 5.9007206 -0.8498702
7.7811217 5.9126167 -0.85510015
7.7122002 5.8221192 -0.84551191
7.8091264 5.8589964 -0.85422856
7.6667514 5.7167025 -0.83679521
7.8527756 5.8171139 -0.85510015
7.7667069 5.7156544 -0.84376854
7.8087506 5.7088656 -0.84638357
7.7944059 5.6608891 -0.84289694
8.1756954 5.8986669 -0.88212168
8.2336407 5.9034071 -0.88648003
8.1791182 5.8254976 -0.87863505
8.1079235 5.7364817 -0.86904669
6.3361797 11.50168 -0.69761461
6.3383603 11.420599 -0.69390112
6.3400955 11.339617 -0.69018751
6.3511858 11.27614 -0.68753505
6.3895407 11.265932 -0.68806553
6.4843464 11.349851 -0.6944316
6.5279522 11.347873 -0.69549263
6.5135045 11.240907 -0.69018751
6.4008965 10.971396 -0.6748029
6.4100366 10.908187 -0.67215037
6.4188418 10.845028 -0.66949785
6.4477682 10.816232 -0.66896731
6.4387231 10.728555 -0.66472328
6.4052439 10.597175 -0.65782672
6.4333124 10.568469 -0.65729618
6.4717007 10.556721 -0.65782672
6.5100794 10.544834 -0.65835726
6.5360675 10.51699 -0.65782672
6.5407624 10.455222 -0.6551742
6.248889 9.9192286 -0.62281334
6.2104802 9.7899275 -0.61591679
6.1981997 9.7030449 -0.61167276
6.1837568 9.6174154 -0.60742873
6.2030864 9.5811758 -0.60636765
6.216795 9.5365448 -0.6047762
6.2576838 9.5336647 -0.60583723
6.241909 9.4483995 -0.6015932
6.2494392 9.3954859 -0.59947115
6.2455854 9.3260231 -0.59628808
6.2413573 9.2566776 -0.59310502
6.246366 9.2050657 -0.59098303
6.2189231 9.1029434 -0.58567798
6.2119598 9.035078 -0.58249491
6.2346296 9.007308 -0.58196443
6.2571878 8.9794846 -0.58143395
6.2566924 8.9189072 -0.57878143
6.2673998 8.8747368 -0.57718992
6.2663193 8.8143091 -0.5745374
6.2692032 8.7631922 -0.57241535
6.2675242 8.7029371 -0.56976283
6.27139 8.6508636 -0.56764078
6.2808771 8.6069202 -0.56604928
6.2827454 8.5560503 -0.56392729
6.2739797 8.4880877 -0.56074423
6.2931771 8.4614229 -0.56021369
6.2957897 8.4096346 -0.5580917
6.2801113 8.3339882 -0.55437815
6.3002272 8.3062611 -0.55384767
6.2945528 8.2478409 -0.55119509
6.2839346 8.1805105 -0.54801214
6.3034949 8.1528282 -0.5474816
6.2861471 8.0778198 -0.54376805
6.2930202 8.0344467 -0.54217654
6.2982888 7.9922099 -0.54058504
6.28475 7.9265389 -0.53740203
6.290935 7.8833389 -0.53581047
6.3094172 7.8557515 -0.53527999
6.290122 7.7815289 -0.53156644
6.3019338 7.7462373 -0.53050542
6.319912 7.7186747 -0.52997494
6.2983418 7.645936 -0.52626139
6.3095846 7.6107359 -0.52520037
6.314271 7.5678735 -0.52360886
6.2994852 7.5021152 -0.5204258
6.3023849 7.460506 -0.51883429
6.3193235 7.4330616 -0.51830381
6.2959151 7.3611579 -0.51459026
6.2994671 7.3186369 -0.51299876
6.3211541 7.2999139 -0.51299876
6.3046927 7.2348485 -0.50981569
6.301054 7.1849747 -0.50769371
6.323595 7.165144 -0.50769371
6.3129172 7.1079111 -0.50504112
6.3152528 7.0657072 -0.50344962
6.3295126 7.0395126 -0.50291914
6.3381968 7.0047841 -0.50185812
6.3131089 6.9331522 -0.49814457
6.3201618 6.8996639 -0.49708357
6.3338385 6.8735375 -0.49655306
6.3214517 6.8169937 -0.49390054
6.3155842 6.7678976 -0.49177852
6.3299804 6.7407441 -0.49124804
6.3236909 6.691793 -0.48912603
6.3102751 6.6357121 -0.4864735
6.3241863 6.6086402 -0.48594296
6.3310633 6.5743532 -0.48488194
6.3158016 6.5196786 -0.48222944
6.3153405 6.4783525 -0.48063791
6.3426547 6.4656091 -0.48116842
6.3407683 6.4254384 -0.47957692
6.3175941 6.3640747 -0.47639385
6.3304992 6.337132 -0.4758634
6.3432965 6.3101702 -0.47533286
6.3275809 6.2551093 -0.47268033
6.3247452 6.2153096 -0.47108883
6.3370953 6.1884327 -0.47055832
6.3565054 6.1684933 -0.47055832
6.3327241 6.1069021 -0.46737525
6.3374586 6.0731597 -0.46631429
6.3492751 6.0463333 -0.46578375
6.3599348 6.0206027 -0.46525323
6.3497243 5.9732237 -0.46313122
6.3382444 5.9270754 -0.4610092
6.3495178 5.9003367 -0.46047869
6.3240051 5.8397121 -0.45729569
6.2908163 5.7725558 -0.45358217
6.35956 5.800972 -0.45729569
6.3703532 5.7742581 -0.45676517
6.4181414 5.7809496 -0.45888719
6.4362712 5.7607574 -0.45888719
6.4767218 5.7604184 -0.46047869
6.5172353 5.759882 -0.46207023
6.5493002 5.7537007 -0.46313122
6.5748658 5.7396646 -0.46366173
6.6069522 5.7332206 -0.46472278
6.6400557 5.7254782 -0.46578375
6.6570144 5.7057514 -0.46578375
6.6977139 5.7042336 -0.46737525
6.7232237 5.6896152 -0.46790579
6.7639937 5.6877456 -0.46949729
6.7971554 5.6792741 -0.47055832
6.8456964 5.6834064 -0.47268033
6.8702316 5.669426 -0.47321084
6.89573 5.6541462 -0.47374132
6.9289432 5.6450691 -0.47480235
6.9689426 5.6433392 -0.47639385
7.001215 5.63516 -0.4774549
7.0422802 5.6318469 -0.4790464
7.0755754 5.6221204 -0.48010743
7.1088781 5.6122389 -0.48116842
7.1421885 5.6022048 -0.48222944
7.1518769 5.5736003 -0.48169893
7.2157502 5.589045 -0.48488194
7.2570148 5.58462 -0.4864735
7.2903895 5.5739236 -0.48753446
7.3396721 5.5751538 -0.48965648
7.3730931 5.5640984 -0.49071753
7.3895698 5.5421977 -0.49071753
7.6061425 5.6694441 -0.50398016
7.6800923 5.687119 -0.50769371
7.7703156 5.7162199 -0.51246822
7.860796 5.7448101 -0.51724279
7.9596133 5.7787533 -0.52254784
8.0587206 5.8121328 -0.52785289
8.1327457 5.828917 -0.53156644
8.216095 5.8496728 -0.53581047
8.2425852 5.8295989 -0.53634095
6.2878885 11.489825 -0.23740484
6.2901626 11.408724 -0.23613627
6.3016982 11.345204 -0.23523015
6.3158088 11.291553 -0.23450525
6.3168936 11.21068 -0.23323667
6.3106561 11.122319 -0.23178688
6.3108368 11.041675 -0.23051828
6.3186359 10.979573 -0.22961217
6.3280258 10.916418 -0.22870605
6.3217578 10.676745 -0.22490032
6.3091784 10.579547 -0.2232693
6.3114953 10.508246 -0.22218193
6.3134274 10.437037 -0.22109459
6.3253779 10.382998 -0.2203697
6.3265944 10.31194 -0.21928233
6.330894 10.25059 -0.21837622
6.2121487 9.8532801 -0.21112721
6.2306428 9.8179207 -0.21076477
6.2399197 9.7645988 -0.21003987
6.254334 9.7197227 -0.20949619
6.2304721 9.6161156 -0.20768394
6.2480526 9.5808372 -0.20732148
6.2342176 9.4942999 -0.20587169
6.2529864 9.4579878 -0.20550925
6.2494264 9.3883581 -0.20442188
6.243865 9.3199348 -0.20333453
6.256341 9.2754059 -0.20279086
6.2389092 9.1906242 -0.20134106
6.2508268 9.1462145 -0.20079738
6.2382751 9.0699625 -0.19952881
6.2439704 9.0174379 -0.1988039
6.2509627 8.9638786 -0.198079
6.2446241 8.8950977 -0.19699165
6.25945 8.860198 -0.1966292
6.2466917 8.7834549 -0.19536063
6.2626147 8.7475271 -0.19499819
6.2666812 8.695364 -0.19427328
6.2572341 8.6281691 -0.19318593
6.2725191 8.5923166 -0.19282347
6.2624707 8.525321 -0.19173613
6.2654452 8.4734478 -0.19101124
6.2800951 8.4376802 -0.19064878
6.2586126 8.3538952 -0.18919897
6.2713346 8.3193216 -0.18883653
6.2793088 8.2756824 -0.18829285
6.2627964 8.2002926 -0.18702428
6.2763405 8.1647234 -0.18666184
6.2836046 8.1212416 -0.18611814
6.2722273 8.0541306 -0.1850308
6.2837634 8.0197449 -0.18466835
6.2765818 7.9618053 -0.18376222
6.2767043 7.9107184 -0.18303733
6.2952876 7.8831482 -0.18285611
6.276176 7.8087792 -0.18158752
6.2755246 7.7579298 -0.18086262
6.2922039 7.7315207 -0.18068139
6.27845 7.6653056 -0.17959405
6.2770605 7.6146841 -0.17886916
6.3009524 7.5949264 -0.17886916
6.2850184 7.5301414 -0.17778179
6.2829204 7.4797359 -0.17705689
6.2921791 7.4457884 -0.17669445
6.2831521 7.3879018 -0.17578833
6.2790446 7.3388386 -0.17506342
6.2890215 7.3039222 -0.17470096
6.2922931 7.2614608 -0.17415729
6.2887888 7.2115149 -0.17343239
6.298224 7.176693 -0.17306995
6.3075018 7.1418829 -0.1727075
6.2888193 7.0782895 -0.17162013
6.2976971 7.043591 -0.17125769
6.3064184 7.0089064 -0.17089523
6.2948523 6.9520025 -0.16998912
6.2952528 6.911119 -0.16944544
6.3089762 6.8850398 -0.16926423
6.3034635 6.8357844 -0.16853933
6.3045044 6.7939601 -0.16799565
6.3121696 6.7595057 -0.16763321
6.3196797 6.7250695 -0.16727073
6.3064275 6.6688595 -0.16636461
6.3066697 6.627286 -0.16582094
6.3193908 6.6013222 -0.16563971
6.3123517 6.5526338 -0.16491482
6.3050694 6.504055 -0.1641899
6.31849 6.4770584 -0.16400871
6.3236737 6.4440098 -0.16364624
6.3076448 6.3896418 -0.16274011
6.3065486 6.3485146 -0.16219644
6.3193932 6.321599 -0.16201521
6.3310318 6.2957711 -0.16183399
6.3081093 6.2336836 -0.16074665
6.3133941 6.1998243 -0.16038418
6.33284 6.1799603 -0.16038418
6.3306909 6.139153 -0.15984051
6.3139486 6.0845447 -0.15893438
6.3247547 6.0588675 -0.15875317
6.3437576 6.0389686 -0.15875317
6.3471231 6.0063748 -0.15839072
6.3295431 5.9521575 -0.15748459
6.3409057 5.9254165 -0.15730336
6.3521638 5.8986635 -0.15712215
6.3339233 5.8447762 -0.15621601
6.3448849 5.8180909 -0.15603478
6.3695087 5.8059754 -0.15621601
6.4247689 5.8194981 -0.15712215
6.4430199 5.7992849 -0.15712215
6.4612069 5.7790151 -0.15712215
6.4633803 5.7465324 -0.15675968
6.5038805 5.746058 -0.15730336
6.5359263 5.7399306 -0.15766582
6.5689936 5.7325172 -0.15802827
6.6086316 5.732656 -0.15857194
6.6417542 5.7249222 -0.15893438
6.6673012 5.7105322 -0.15911561
6.7004366 5.7025185 -0.15947807
6.7335873 5.6943521 -0.15984051
6.7744069 5.6924667 -0.16038418
6.7989411 5.678751 -0.16056542
6.8398294 5.6765189 -0.16110909
6.8730564 5.667726 -0.16147155
6.9140296 5.6651158 -0.16201521
6.938561 5.6508904 -0.16219644
6.97861 5.6491513 -0.16274011
7.0196972 5.645998 -0.1632838
7.0530205 5.6364012 -0.16364624
7.0863538 5.6266508 -0.16400871
7.1118445 5.6105523 -0.1641899
7.1441965 5.6017656 -0.16455238
7.1933093 5.6038718 -0.16527727
7.2345986 5.5996051 -0.16582094
7.2600808 5.5829444 -0.16600217
7.4364829 5.6815085 -0.16962667
7.3746557 5.5976686 -0.16781443
7.4710507 5.6359758 -0.16962667
7.4717407 5.6017895 -0.16926423
7.4973202 5.5842605 -0.16944544
7.7237954 5.7153077 -0.17415729
7.8706064 5.7857666 -0.17705689
7.9775643 5.8258743 -0.17905039
8.0676413 5.8550329 -0.18068139
8.1022167 5.8413534 -0.18104385
8.2018147 5.8740873 -0.18285611
6.2492166 5.8295283 1.0468937
6.2092648 5.7558851 1.0371665
6.2565193 5.7632484 1.0420301
6.3038802 5.7703729 1.0468937
6.3576808 5.7850447 1.0529733
6.3684611 5.7583852 1.0517573
6.3865199 5.7383504 1.0517573
6.4045162 5.7182579 1.0517573
6.1944766 9.8024797 1.0146142
6.2359371 9.7997808 1.0163575
6.227375 9.7225142 1.0102559
6.2416902 9.6777868 1.007641
6.2286577 9.5912914 1.0006677
6.2424035 9.5466633 0.99805272
6.2323656 9.4698496 0.99195111
6.2455764 9.4253101 0.98933607
6.2419834 9.3559217 0.98410612
6.2491264 9.3031874 0.98061949
6.248805 9.2433405 0.97626114
6.2385769 9.1660166 0.97015953
6.2544866 9.1310272 0.96841615
6.2378983 9.0457258 0.96144289
6.2476711 9.0026245 0.95882791
6.2489562 8.9410305 0.95446962
6.2483521 8.8806181 0.95011127
6.2589464 8.8365574 0.94749629
6.2504449 8.7692738 0.94226629
6.260541 8.7253122 0.93965137
6.2587566 8.6652222 0.93529302
6.2507987 8.5971737 0.93006313
6.2703972 8.57055 0.92919141
6.2500319 8.4866371 0.92221814
6.2573915 8.4440441 0.91960317
6.2660189 8.4003887 0.91698813
6.2505097 8.3248968 0.91088653
6.2706256 8.2972717 0.91001487
6.2650671 8.2389812 0.90565652
6.254591 8.1717939 0.90042657
6.2802324 8.1521044 0.90042657
6.2569771 8.0693541 0.8934533
6.2700381 8.0339508 0.89170992
6.2815442 7.9996414 0.88996667
6.262022 7.9262509 0.883865
6.2682924 7.8831468 0.88125002
6.2743535 7.8400822 0.87863505
6.2614584 7.7737823 0.87340504
6.2733035 7.7385964 0.87166178
6.2786908 7.6956925 0.86904669
6.2698946 7.6385298 0.86468846
6.2875166 7.611114 0.8638168
6.2859216 7.5606828 0.86033016
6.264894 7.4874163 0.85422856
6.2806664 7.4611735 0.85335684
6.2911963 7.4262033 0.85161352
6.2679701 7.3544312 0.84551191
6.2780724 7.3195796 0.84376854
6.2932544 7.2933788 0.84289694
6.2769456 7.2284412 0.83766693
6.2799582 7.186182 0.83505195
6.2959242 7.158937 0.8341803
6.27877 7.0943632 0.82895035
6.2811494 7.0522847 0.82633531
6.2953982 7.0261979 0.82546365
6.2974277 6.9841905 0.82284868
6.2791734 6.9201074 0.81761873
6.2929616 6.8940887 0.81674707
6.2999129 6.8607111 0.81500369
6.2876315 6.8043036 0.81064546
6.2886248 6.7626309 0.80803043
6.3098392 6.7428412 0.80803043
6.2900147 6.6794705 0.80280048
6.29041 6.6379843 0.80018544
6.304358 6.610981 0.79931384
6.3113008 6.5767665 0.79757047
6.2892737 6.5150084 0.79234058
6.2958269 6.480927 0.7905972
6.3091922 6.4539924 0.78972548
6.3003745 6.4068327 0.78623885
6.284327 6.3527007 0.78188062
6.297225 6.3258662 0.78100896
6.3100171 6.2990131 0.78013724
6.2944126 6.2440796 0.77577895
6.2987251 6.2113872 0.77403563
6.3039775 6.1776228 0.77229232
6.3233538 6.1577883 0.77229232
6.299716 6.0963264 0.76706237
6.3044753 6.062695 0.76531899
6.3090868 6.0290942 0.76357573
6.319725 6.0034871 0.76270401
6.3095779 5.9562502 0.75921738
6.2981658 5.9102354 0.75573075
6.3167019 5.89042 0.75573075
6.3205614 5.8570042 0.75398737
6.309618 5.8101263 0.75050074
6.3057919 5.7701001 0.74788576
6.3744698 5.7982874 0.75398737
6.4181862 5.7647786 0.75485909
6.4214005 5.7313194 0.75311571
6.4617338 5.7309484 0.75573075
6.5160728 5.7446904 0.7600891
6.5565672 5.7438846 0.76270401
6.5961185 5.7440319 0.76531899
6.6367307 5.7428365 0.76793396
6.6688461 5.7361126 0.76967734
6.7095523 5.7345505 0.77229232
6.7351279 5.7198925 0.77316397
6.7606773 5.7051306 0.77403563
6.8091021 5.709465 0.77752227
6.8346577 5.6944222 0.77839386
6.866869 5.6868262 0.78013724
6.9000859 5.6778855 0.78188062
6.9410253 5.6750975 0.78449559
6.9655647 5.6607609 0.78536725
7.005578 5.6588478 0.78798223
7.0388589 5.649282 0.78972548
7.0721498 5.6395631 0.79146886
7.1054482 5.6296902 0.79321218
7.1387548 5.6196637 0.79495549
7.1406798 5.5849347 0.79321218
7.22014 5.6126351 0.80018544
7.2298536 5.5838356 0.79931384
7.3615704 5.5755954 0.80803043
7.4576721 5.6136394 0.81674707
7.4423881 5.5676174 0.81326044
7.6677265 5.6987104 0.83592361
7.757719 5.7278476 0.84376854
7.8560028 5.7623682 0.85248518
7.9545794 5.7963262 0.86120182
8.0534449 5.8297219 0.86991841
8.0949678 5.8232541 0.87253344
8.1699581 5.8383379 0.87863505
6.3983579 10.927574 0.65690124
6.4003234 10.856925 0.65379292
6.4005904 10.775538 0.65016651
6.4069061 10.713646 0.64757621
6.3941603 10.616471 0.64291364
6.3860478 10.528023 0.63876915
6.3982663 10.47382 0.63669693
6.4358373 10.392089 0.63410658
6.2288985 9.9915886 0.61079389
6.1848278 9.7834291 0.60043263
6.1905966 9.6613808 0.59525204
6.1938477 9.5999269 0.59266174
6.1967731 9.5385485 0.59007138
6.215775 9.5023193 0.58903527
6.2000089 9.4171066 0.58489084
6.2130094 9.3726101 0.58333659
6.2036161 9.2948999 0.57971019
6.2216473 9.2587872 0.57867408
6.209929 9.1823788 0.57504761
6.2162638 9.1298056 0.5729754
6.2263904 9.0866079 0.57142121
6.2095394 9.0012398 0.56727672
6.2305241 8.9745722 0.56675869
6.2144718 8.8883858 0.5626142
6.225121 8.8443193 0.56106001
6.2240062 8.7839766 0.55846971
6.2210526 8.7248144 0.55587935
6.2309618 8.6808891 0.55432522
6.2172613 8.6046085 0.55069882
6.2266402 8.5608044 0.54914457
6.2402167 8.5261755 0.54810846
6.2255082 8.4502478 0.54448205
6.2327113 8.407671 0.54292786
6.2411771 8.3640375 0.54137367
6.2314363 8.2964783 0.53826529
6.2454252 8.2609291 0.53722918
6.2336311 8.1946716 0.5341208
6.2350597 8.1433315 0.53204858
6.2423244 8.0999727 0.53049439
6.2248945 8.0250854 0.52686799
6.2439294 7.9976182 0.5263499
6.249125 7.9554968 0.52479577
6.235548 7.8899097 0.52168739
6.2540874 7.8624654 0.5211693
6.247551 7.8037996 0.51857901
6.2281756 7.7296987 0.51495254
6.2461381 7.7023377 0.51443452
6.2450471 7.6517291 0.51236224
6.2360358 7.5945768 0.509772
6.2535024 7.5672498 0.50925392
6.2517014 7.5168538 0.50718164
6.2368259 7.4512286 0.50407326
6.2589064 7.4326906 0.50407326
6.2628565 7.3901353 0.50251913
6.2394023 7.3183241 0.49889269
6.2493567 7.2835274 0.49785656
6.2578893 7.2498341 0.49682045
6.2544374 7.1999822 0.49474823
6.2507348 7.1502228 0.49267599
6.2665706 7.1230521 0.49215791
6.2558174 7.0659442 0.48956761
6.2580552 7.0238872 0.48801342
6.2788677 7.0052881 0.48801342
6.247334 6.9262033 0.48386893
6.2489262 6.8843579 0.48231474
6.2693248 6.8657866 0.48231474
6.2694011 6.8250918 0.48076054
6.2569175 6.7686949 0.47817025
6.2577453 6.7270689 0.47661605
6.2720232 6.7000856 0.476098
6.2588024 6.6440024 0.47350767
6.2590332 6.6025643 0.47195351
6.2797446 6.5828686 0.47195351
6.2796469 6.5414953 0.47039935
6.2574043 6.4797316 0.46729097
6.2707705 6.4528804 0.46677294
6.2770476 6.4188676 0.46573678
6.2610474 6.3646188 0.46314648
6.2658553 6.3318176 0.46211037
6.264576 6.2908716 0.46055615
6.2772398 6.2641063 0.46003813
6.2614322 6.2091956 0.45744783
6.272716 6.1835785 0.45692974
6.284977 6.1568532 0.45641166
6.2899771 6.1231465 0.45537558
6.2661161 6.0616941 0.4522672
6.2635298 6.0212164 0.45071301
6.2824154 6.0015092 0.45071301
6.292953 5.9759655 0.45019495
6.2753792 5.921896 0.44760463
6.2856398 5.8964181 0.4470866
6.2895226 5.8630228 0.44605047
6.2859325 5.822875 0.4444963
6.2674565 5.7692814 0.44190598
6.3150249 5.7765245 0.44397822
6.3690805 5.7913547 0.44656855
6.4613414 5.8382697 0.45174918
6.4202042 5.7645655 0.44760463
6.4084754 5.7177739 0.44553238
6.471242 5.7373638 0.44864079
6.5107136 5.7379465 0.45019495
6.5437331 5.7306237 0.45123109
6.5757723 5.7242961 0.4522672
6.6088295 5.7166767 0.45330334
6.6484785 5.7165756 0.4548575
6.6739979 5.7021475 0.45537558
6.7147174 5.700542 0.45692974
6.7478604 5.6922975 0.45796588
6.7733631 5.677485 0.4584839
6.8065133 5.668961 0.45952007
6.8463812 5.6678452 0.46107423
6.8795786 5.6589975 0.46211037
6.905055 5.6436758 0.46262839
6.9450235 5.642055 0.46418262
6.9850421 5.6402454 0.46573678
7.0105171 5.6245227 0.46625486
7.051579 5.6211462 0.46780902
7.0848608 5.6113663 0.46884519
7.0946069 5.5829048 0.46832711
7.1278448 5.5728912 0.46936321
7.1758914 5.5762281 0.47143543
7.2012792 5.5597606 0.47195351
7.3234434 5.5809884 0.47765222
7.3966732 5.6001511 0.48127863
7.421237 5.5841842 0.48179671
7.5577369 5.6518521 0.48956761
7.6876841 5.7114606 0.49682045
7.777904 5.740654 0.50148296
7.8603301 5.7634325 0.50562751
7.9671912 5.8033876 0.51132613
8.058198 5.8310199 0.51598871
8.1241112 5.8420672 0.51909703
8.1668034 5.8339305 0.52065128
6.3446155 10.605279 0.20855078
6.3211403 10.49109 0.20669475
6.4111238 10.565207 0.20855078
6.4494982 10.553545 0.20871952
6.5088243 10.575807 0.20956318
6.4980478 10.488452 0.20821333
6.3016243 10.104318 0.20095792
6.1950774 9.8643227 0.19657093
6.2100039 9.8194609 0.19606474
6.2085977 9.7493 0.19505236
6.2159142 9.6971655 0.19437742
6.2192369 9.6355867 0.19353378
6.2222347 9.5740833 0.19269013
6.2358565 9.5293884 0.19218393
6.2201066 9.4440432 0.19083409
6.2386942 9.4077902 0.19049664
6.2238021 9.3216209 0.1891468
6.2363214 9.2771273 0.18864059
6.2358069 9.2171764 0.18779695
6.236589 9.1562223 0.18695329
6.241116 9.1046896 0.18627837
6.2299342 9.0274324 0.18509725
6.2509885 9.0006971 0.18492854
6.2349567 8.9143715 0.18357868
6.2399058 8.8620386 0.18290377
6.2561517 8.8260765 0.1825663
6.2358618 8.7423553 0.18121646
6.2516322 8.7064781 0.180879
6.2438102 8.638176 0.17986661
6.2415042 8.5780926 0.17902297
6.2551146 8.5434017 0.17868552
6.2463317 8.4754152 0.17767312
6.2535844 8.4327517 0.17716694
6.2621026 8.3890257 0.17666073
6.2523899 8.3213501 0.17564836
6.266439 8.2857161 0.17531089
6.248611 8.2113905 0.17412978
6.2439775 8.1520309 0.17328613
6.2695575 8.1323738 0.17328613
6.2521682 8.0573425 0.17210501
6.2589874 8.0140209 0.17159884
6.2703819 7.979691 0.17126137
6.256825 7.9139915 0.17024899
6.2692051 7.8786478 0.16991152
6.2689247 7.8276968 0.1692366
6.2495627 7.7534719 0.16805549
6.2675905 7.7260351 0.16788676
6.272862 7.6830716 0.16738057
6.2575517 7.6180682 0.16636819
6.2750831 7.5906653 0.16619945
6.2797141 7.5478559 0.16569327
6.2713008 7.4897599 0.16484961
6.2741709 7.4481788 0.16434342
6.2846079 7.413177 0.16400595
6.2676458 7.3488536 0.16299358
6.2776775 7.3139524 0.16265611
6.2862821 7.2801585 0.16231866
6.2566557 7.1999965 0.16096881
6.2726622 7.1727786 0.16080008
6.2819538 7.1380258 0.16046263
6.2712016 7.0808301 0.15961897
6.2734571 7.0387006 0.15911277
6.2876396 7.0126119 0.15894406
6.2828469 6.9631305 0.15826914
6.2778053 6.9137487 0.1575942
6.2848043 6.8803267 0.15725674
6.2984257 6.8542867 0.15708801
6.2724099 6.7830791 0.1559069
6.2732544 6.7413816 0.15540071
6.2944021 6.7216406 0.15540071
6.2812018 6.6654491 0.15455705
6.274591 6.616663 0.15388213
6.2884436 6.5896845 0.15371341
6.3021889 6.5626845 0.15354466
6.2868991 6.5080013 0.15270102
6.2933745 6.4738798 0.15236355
6.2996988 6.4397817 0.1520261
6.2977386 6.3996816 0.15151991
6.2885618 6.3525453 0.15084498
6.2873187 6.3115067 0.1503388
6.307116 6.2917233 0.1503388
6.2913461 6.2366824 0.14949514
6.2884588 6.1969337 0.14898895
6.3007517 6.1701522 0.14882022
6.3129392 6.1433535 0.14865148
6.289083 6.0817876 0.14763911
6.3009486 6.0550718 0.14747038
6.3054786 6.0214367 0.14713292
6.3160648 5.9958172 0.14696419
6.2912316 5.9347787 0.14595181
6.2942257 5.9024076 0.14561436
6.3127379 5.8826051 0.14561436
6.3165145 5.8491564 0.14527687
6.3054285 5.8022027 0.14460196
6.3088684 5.7688704 0.1442645
6.3851476 5.8039289 0.14561436
6.6333652 5.9916029 0.15084498
6.4289289 5.7703733 0.14578307
6.4246397 5.7301826 0.14527687
6.4500933 5.7166023 0.14544562
6.4970355 5.7238774 0.14612053
6.5375543 5.7231965 0.14662673
6.5771351 5.723465 0.14713292
6.6102095 5.7158537 0.14747038
6.6347218 5.7027335 0.14763911
6.6678104 5.6948481 0.14797656
6.7009153 5.6868124 0.14831403
6.7416792 5.6850691 0.14882022
6.7748337 5.6767054 0.14915769
6.8156862 5.6745853 0.14966388
6.8401957 5.6607132 0.14983261
6.8733912 5.651897 0.15017006
6.9065995 5.6429276 0.15050752
6.9388342 5.6350169 0.15084498
6.9788642 5.633245 0.15135118
7.0121269 5.6238031 0.15168864
7.0532179 5.62044 0.15219483
7.0865192 5.6106668 0.15253229
7.111969 5.5945582 0.15270102
7.1373868 5.5783448 0.15286975
7.1854916 5.5816774 0.15354466
7.226738 5.5774035 0.15405087
7.3252678 5.5803585 0.15540071
7.3985705 5.5995564 0.15658182
7.4391236 5.5956101 0.15708801
7.5437846 5.6393661 0.15894406
7.6497607 5.6812143 0.16080008
7.7399831 5.7105789 0.16231866
7.8465924 5.7512541 0.16417469
7.9373679 5.7795444 0.16569327
8.052701 5.8249011 0.16771802
8.1348982 5.8476701 0.16906786
8.145092 5.8162746 0.16889915
8.1796341 5.8022275 0.1692366
