# .PCD v0.7 - Point Cloud Data file format
VERSION 0.7
FIELDS x y z
SIZE 4 4 4
TYPE F F F
COUNT 1 1 1
WIDTH 310
HEIGHT 1
VIEWPOINT 0 0 0 1 0 0 0
POINTS 310
DATA ascii
4.8504119 -10.288998 -1.3934265
4.8240671 -10.312334 -1.3946424
4.7101803 -10.32122 -1.3897787
4.6345005 -10.235688 -1.3764038
4.596468 -10.241944 -1.3751879
4.5642686 -10.256334 -1.3751879
4.5280204 -10.261541 -1.3739721
4.4975529 -10.274932 -1.3739721
4.465251 -10.289011 -1.3739721
4.4289813 -10.29387 -1.3727561
4.3927255 -10.298603 -1.3715402
4.3564863 -10.303209 -1.3703243
4.3202591 -10.307691 -1.3691083
4.2896557 -10.320464 -1.3691083
4.2554078 -10.334633 -1.3691083
4.2191691 -10.338761 -1.3678925
4.1829486 -10.342762 -1.3666766
4.1485476 -10.345915 -1.3654606
4.1086941 -10.340449 -1.3630289
4.0689154 -10.334834 -1.360597
4.0328197 -10.338319 -1.3593811
3.9967451 -10.341679 -1.3581653
3.9606864 -10.344914 -1.3569493
3.9299746 -10.356621 -1.3569493
3.9009109 -10.378207 -1.3581653
3.8890679 -10.446222 -1.3654606
3.8493629 -10.439763 -1.3630289
3.8301642 -10.4891 -1.3678925
3.814069 -10.547752 -1.3739721
3.8076804 -10.634441 -1.3836993
3.6847072 -10.393757 -1.3508698
3.6421742 -10.377185 -1.3472221
3.606297 -10.3792 -1.3460062
3.5787148 -10.39924 -1.3472221
3.5524271 -10.429222 -1.3496538
3.5214694 -10.439716 -1.3496538
3.4805477 -10.432506 -1.3472221
3.4415319 -10.424538 -1.3447902
3.3933547 -10.388124 -1.3387108
3.3912263 -10.49318 -1.3508698
3.361269 -10.513236 -1.3520857
3.3222375 -10.504816 -1.3496538
3.2981088 -10.543622 -1.3533016
3.2932262 -10.638698 -1.3642447
3.280127 -10.715428 -1.3727561
3.2723265 -10.811182 -1.3836993
4.9713559 -10.464934 -1.0137427
4.8959889 -10.390386 -1.005026
4.8398228 -10.35072 -0.99979597
4.7905159 -10.329724 -0.99630934
4.7497172 -10.326622 -0.99456608
4.7089825 -10.323365 -0.99282271
4.6765246 -10.33811 -0.99282271
4.6358709 -10.334571 -0.99107939
4.5993319 -10.339982 -0.99020773
4.5547671 -10.327035 -0.98759276
4.520112 -10.331377 -0.9867211
4.4797039 -10.32725 -0.98497778
4.4354305 -10.313816 -0.98236275
4.3951926 -10.309373 -0.98061949
4.3589072 -10.313952 -0.97974777
4.3149352 -10.300032 -0.97713286
4.2787347 -10.304336 -0.97626114
4.2425499 -10.308515 -0.97538948
4.2063808 -10.312568 -0.97451776
4.1702309 -10.316496 -0.97364616
4.1321902 -10.310329 -0.97190285
4.0961013 -10.314002 -0.97103113
4.0563831 -10.30828 -0.96928787
4.0167403 -10.302409 -0.9675445
3.9735882 -10.287099 -0.96492952
3.9412479 -10.299533 -0.96492952
3.9036078 -10.292552 -0.96318626
3.8712533 -10.304765 -0.96318626
3.8319144 -10.298202 -0.96144289
3.7960975 -10.300841 -0.96057123
3.7603021 -10.303359 -0.95969963
3.7312999 -10.32449 -0.96057123
3.6921329 -10.317403 -0.95882791
3.6563764 -10.31956 -0.95795625
3.6206405 -10.321596 -0.9570846
3.584928 -10.323509 -0.95621288
3.5478013 -10.31526 -0.95446962
3.5089562 -10.307493 -0.95272624
3.4765589 -10.318466 -0.95272624
3.440974 -10.319887 -0.95185465
3.4022927 -10.311726 -0.95011127
3.3791552 -10.350774 -0.95272624
3.3496821 -10.370818 -0.9535979
3.3261826 -10.409758 -0.95621288
3.3024671 -10.448653 -0.95882791
3.2785444 -10.4875 -0.96144289
3.2709658 -10.573318 -0.96841615
3.2610486 -10.65975 -0.97538948
3.250618 -10.746224 -0.98236275
3.2453821 -10.851828 -0.99107939
3.2470839 -10.97604 -1.0015393
3.2377489 -11.072241 -1.0093843
3.2341876 -11.197765 -1.0198443
3.2290683 -11.313243 -1.0294325
3.233367 -11.456999 -1.0416358
3.2455182 -11.639827 -1.0573257
3.2962341 -11.966907 -1.0860906
3.26124 -11.986814 -1.0869621
3.2158108 -11.968139 -1.0843472
3.1781952 -11.978183 -1.0843472
3.1401143 -11.977923 -1.0834755
3.1374121 -12.122748 -1.0956788
3.148627 -12.325583 -1.113112
3.1488538 -12.489969 -1.1270586
4.9281912 -10.295151 -0.60636765
4.9088564 -10.503136 -0.61591679
4.8422375 -10.446028 -0.61167276
4.8219118 -10.488406 -0.61326426
4.7847953 -10.494417 -0.61273378
4.7353425 -10.473001 -0.61061174
4.6983342 -10.478715 -0.61008126
4.6572766 -10.475173 -0.60902023
4.616291 -10.471478 -0.60795921
4.5852003 -10.485128 -0.60795921
4.5403204 -10.471995 -0.60636765
4.5073986 -10.486208 -0.60636765
4.4744325 -10.500317 -0.60636765
4.4258819 -10.477526 -0.60424566
4.3775134 -10.454535 -0.60212362
4.3523059 -10.486682 -0.6031847
4.3193393 -10.500303 -0.6031847
4.27879 -10.495327 -0.60212362
4.2420583 -10.499458 -0.6015932
4.2071705 -10.50273 -0.60106266
4.1704721 -10.506613 -0.60053211
4.1264787 -10.491784 -0.59894061
4.0898714 -10.495392 -0.59841013
4.0532842 -10.498872 -0.59787959
4.0095763 -10.483574 -0.59628808
3.9678369 -10.467412 -0.59469658
3.9244015 -10.451779 -0.59310502
3.8985107 -10.482775 -0.5941661
3.8655584 -10.494971 -0.5941661
3.8257239 -10.4883 -0.59310502
3.7690077 -10.434524 -0.58939153
3.7328446 -10.436911 -0.58886099
3.7100401 -10.476826 -0.59045255
3.6771073 -10.488429 -0.59045255
3.6310418 -10.462194 -0.58833051
3.5902445 -10.444591 -0.586739
3.5606303 -10.465272 -0.58726948
3.5245502 -10.466942 -0.586739
3.4916496 -10.477963 -0.586739
3.4524601 -10.469914 -0.58567798
3.4195504 -10.480709 -0.58567798
3.3866069 -10.4914 -0.58567798
3.3536325 -10.501987 -0.58567798
3.3055809 -10.464861 -0.58302546
3.2756684 -10.484725 -0.583556
3.2651916 -10.56118 -0.58726948
3.4790611 -11.508682 -0.63872856
3.2352123 -11.610697 -0.64032006
3.278224 -11.909639 -0.65623522
3.2486544 -11.948787 -0.65782672
3.2085099 -11.949289 -0.65729618
3.1709538 -11.959311 -0.65729618
3.1430473 -11.997646 -0.65888774
3.1153407 -12.046133 -0.66100979
3.1219416 -12.230021 -0.67055881
3.1127775 -12.355969 -0.67692488
4.9095821 -10.684014 -0.21312068
4.8469691 -10.635699 -0.2118521
4.8423524 -10.714653 -0.21312068
4.825026 -10.766309 -0.2138456
4.6859908 -11.49988 -0.22508155
4.5936842 -11.375479 -0.22236316
4.5504918 -11.37129 -0.22200072
4.5147476 -11.385529 -0.22200072
4.5155187 -11.492714 -0.22381297
4.5156641 -11.600016 -0.22562522
4.4812255 -11.613363 -0.22562522
4.4625659 -11.674082 -0.22653134
4.4349952 -11.70597 -0.2268938
4.3946843 -11.710484 -0.22671255
4.0531335 -11.016099 -0.21275824
4.0150847 -11.019382 -0.21257702
4.0449204 -11.210636 -0.2160203
4.0937767 -11.458676 -0.22055092
4.0977707 -11.584592 -0.22272561
4.1724834 -11.908085 -0.22870605
4.0727992 -11.741654 -0.22526276
4.0119543 -11.67804 -0.22381297
3.9784651 -11.700052 -0.2239942
3.9831488 -11.835683 -0.22635011
3.9712172 -11.924027 -0.22779992
3.8002882 -11.538276 -0.22018847
3.7144532 -11.398058 -0.21728887
3.6694221 -11.381124 -0.2167452
3.6336515 -11.392594 -0.2167452
3.3770974 -10.697768 -0.20333453
3.3226154 -10.641518 -0.20206596
3.3127666 -10.72833 -0.20351575
3.5564389 -11.64712 -0.22073214
3.5247564 -11.667192 -0.22091337
3.5081148 -11.745269 -0.22218193
3.476083 -11.765215 -0.22236316
3.4306953 -11.747286 -0.22181949
3.3446159 -11.595284 -0.21873866
3.2999463 -11.576888 -0.21819499
3.2716939 -11.616069 -0.21873866
3.3209555 -11.934526 -0.22453786
3.2887456 -11.964183 -0.22490032
3.2511451 -11.974455 -0.22490032
3.2130072 -11.974393 -0.22471909
3.1728141 -11.974762 -0.22453786
3.1377087 -11.994344 -0.22471909
3.107511 -12.033184 -0.22526276
3.1190867 -12.236658 -0.22888727
3.1123338 -12.372449 -0.23124319
3.1119905 -12.537428 -0.23414281
4.7073221 -12.02403 0.66985279
4.6550813 -12.001515 0.66778052
4.6137719 -12.00676 0.66726249
4.5745745 -12.011063 0.66674447
4.5332923 -12.01603 0.66622639
4.490622 -12.010722 0.66519028
4.4369049 -11.988083 0.663118
4.3957844 -11.992587 0.66259998
4.3580894 -12.006336 0.66259998
4.3169703 -12.010571 0.6620819
4.2691712 -11.995849 0.66052771
4.2248254 -11.990363 0.6594916
4.1871352 -12.003577 0.6594916
4.1482425 -12.006508 0.65897352
4.1072707 -12.010032 0.65845549
4.062007 -11.993789 0.65690124
4.0158672 -11.988255 0.65586513
3.9781847 -12.000812 0.65586513
3.9342406 -11.994271 0.65482903
3.8903713 -11.987576 0.65379292
3.8465886 -11.98072 0.65275675
3.8059077 -11.983228 0.65223873
3.768245 -11.995125 0.65223873
3.7296724 -11.996716 0.6517207
3.6860921 -11.989284 0.65068454
3.6426015 -11.981695 0.64964843
3.6020665 -11.983516 0.64913034
3.5579581 -11.965433 0.64757621
3.5203495 -11.976551 0.64757621
3.4875858 -11.996532 0.64809424
3.4401801 -11.989436 0.64705813
3.3964133 -11.970769 0.64550394
3.3560958 -11.971763 0.64498585
3.3184683 -11.982247 0.64498585
3.2808082 -11.992614 0.64498585
3.2405105 -11.99322 0.64446783
3.1925178 -11.964746 0.64239556
3.1646438 -12.003135 0.64394975
3.1218874 -11.993689 0.64291364
3.1102927 -12.264752 0.65638322
3.0959899 -12.371341 0.66156381
3.0954151 -12.536131 0.66985279
4.7654476 -11.044012 0.20298268
4.7149954 -11.022159 0.20230776
4.6764436 -11.027711 0.20213903
4.6379008 -11.033131 0.20197029
4.6012969 -11.037615 0.20180157
4.5608549 -11.043571 0.20163284
4.526135 -11.057845 0.20163284
4.4725833 -11.025682 0.20078918
4.4286561 -11.011076 0.20028301
4.3903399 -11.015646 0.20011427
4.3520408 -11.020083 0.19994552
4.3137527 -11.024392 0.19977681
4.2718711 -11.019244 0.19943935
4.230062 -11.013943 0.1991019
4.1973662 -11.026444 0.1991019
4.1556487 -11.020865 0.19876443
4.1194277 -11.023782 0.19859569
4.0759134 -11.018626 0.19825824
4.0378375 -11.021988 0.1980895
4.0031934 -11.034618 0.1980895
3.9651237 -11.037731 0.19792077
3.9270792 -11.040712 0.19775203
3.8890531 -11.043565 0.19758332
3.8510475 -11.046287 0.19741458
3.8117304 -11.038761 0.19707711
3.7737958 -11.041223 0.1969084
3.7346096 -11.033428 0.19657093
3.6948264 -11.036271 0.19640219
3.6632805 -11.057316 0.19657093
3.6347566 -11.087771 0.1969084
3.5968173 -11.089625 0.19673966
3.552798 -11.072309 0.19623347
3.5149705 -11.073886 0.19606474
3.4771705 -11.075333 0.195896
3.4413269 -11.076053 0.19572727
3.4035738 -11.077253 0.19555855
3.3774786 -11.11659 0.19606474
3.3540437 -11.16545 0.19673966
3.3465357 -11.261612 0.19825824
3.3421371 -11.377595 0.20011427
3.3585751 -11.56029 0.20315142
3.4229286 -11.937171 0.20956318
3.3874946 -11.947274 0.20956318
3.3499467 -11.957857 0.20956318
3.3150296 -11.977958 0.20973189
3.2721097 -11.969025 0.20939444
3.2370977 -11.988898 0.20956318
3.196841 -11.989347 0.20939444
3.1612558 -11.998779 0.20939444
3.1210246 -11.998976 0.2092257
3.1118884 -12.280039 0.21378143
3.0975499 -12.386753 0.21546873
