# .PCD v0.7 - Point Cloud Data file format
VERSION 0.7
FIELDS x y z normal_x normal_y normal_z curvature
SIZE 4 4 4 4 4 4 4
TYPE F F F F F F F
COUNT 1 1 1 1 1 1 1
WIDTH 310
HEIGHT 1
VIEWPOINT 0 0 0 1 0 0 0
POINTS 310
DATA ascii
0.81702662 1.0975609 -1.3934265 0 0 0 2.6549068e-38
0.79068184 1.0742245 -1.3946424 0 0 0 2.6549068e-38
0.67679501 1.0653381 -1.3897787 0 0 0 2.6549068e-38
0.60111523 1.1508703 -1.3764038 0 0 0 2.6549068e-38
0.5630827 1.1446142 -1.3751879 0 0 0 2.6549068e-38
0.53088331 1.1302242 -1.3751879 0 0 0 2.6549068e-38
0.49463511 1.1250172 -1.3739721 0 0 0 2.6549068e-38
0.46416759 1.1116266 -1.3739721 0 0 0 2.6549068e-38
0.43186569 1.0975475 -1.3739721 0 0 0 2.6549068e-38
0.39559603 1.0926886 -1.3727561 0 0 0 2.6549068e-38
0.35934019 1.0879555 -1.3715402 0 0 0 2.6549068e-38
0.32310104 1.0833492 -1.3703243 0 0 0 2.6549068e-38
0.28687382 1.0788679 -1.3691083 0 0 0 2.6549068e-38
0.25627041 1.0660944 -1.3691083 0 0 0 2.6549068e-38
0.22202253 1.0519257 -1.3691083 0 0 0 2.6549068e-38
0.18578386 1.0477972 -1.3678925 0 0 0 2.6549068e-38
0.14956331 1.0437965 -1.3666766 0 0 0 2.6549068e-38
0.11516237 1.0406437 -1.3654606 0 0 0 2.6549068e-38
0.0753088 1.0461092 -1.3630289 0 0 0 2.6549068e-38
0.03553009 1.0517244 -1.360597 0 0 0 2.6549068e-38
-0.00056552887 1.0482397 -1.3593811 0 0 0 2.6549068e-38
-0.036640167 1.0448799 -1.3581653 0 0 0 2.6549068e-38
-0.072698832 1.0416441 -1.3569493 0 0 0 2.6549068e-38
-0.10341072 1.0299377 -1.3569493 0 0 0 2.6549068e-38
-0.13247442 1.0083513 -1.3581653 0 0 0 2.6549068e-38
-0.14431739 0.94033623 -1.3654606 0 0 0 2.6549068e-38
-0.18402243 0.94679546 -1.3630289 0 0 0 2.6549068e-38
-0.20322108 0.89745808 -1.3678925 0 0 0 2.6549068e-38
-0.21931624 0.83880615 -1.3739721 0 0 0 2.6549068e-38
-0.22570491 0.75211716 -1.3836993 0 0 0 2.6549068e-38
-0.34867811 0.99280167 -1.3508698 0 0 0 2.6549068e-38
-0.39121103 1.0093737 -1.3472221 0 0 0 2.6549068e-38
-0.42708826 1.0073586 -1.3460062 0 0 0 2.6549068e-38
-0.45467043 0.98731899 -1.3472221 0 0 0 2.6549068e-38
-0.48095822 0.95733643 -1.3496538 0 0 0 2.6549068e-38
-0.51191592 0.94684219 -1.3496538 0 0 0 2.6549068e-38
-0.55283761 0.95405293 -1.3472221 0 0 0 2.6549068e-38
-0.59185338 0.96202087 -1.3447902 0 0 0 2.6549068e-38
-0.64003062 0.99843407 -1.3387108 0 0 0 2.6549068e-38
-0.64215899 0.89337826 -1.3508698 0 0 0 2.6549068e-38
-0.67211628 0.87332249 -1.3520857 0 0 0 2.6549068e-38
-0.71114779 0.88174248 -1.3496538 0 0 0 2.6549068e-38
-0.73527646 0.84293652 -1.3533016 0 0 0 2.6549068e-38
-0.74015903 0.74786091 -1.3642447 0 0 0 2.6549068e-38
-0.75325823 0.67113018 -1.3727561 0 0 0 2.6549068e-38
-0.76105881 0.57537651 -1.3836993 0 0 0 2.6549068e-38
0.93797064 0.92162418 -1.0137427 0 0 0 2.6549068e-38
0.86260366 0.9961729 -1.005026 0 0 0 2.6549068e-38
0.80643749 1.0358381 -0.99979597 0 0 0 2.6549068e-38
0.75713062 1.0568342 -0.99630934 0 0 0 2.6549068e-38
0.71633196 1.0599365 -0.99456608 0 0 0 2.6549068e-38
0.67559719 1.0631933 -0.99282271 0 0 0 2.6549068e-38
0.64313936 1.0484486 -0.99282271 0 0 0 2.6549068e-38
0.60248566 1.0519876 -0.99107939 0 0 0 2.6549068e-38
0.56594658 1.0465765 -0.99020773 0 0 0 2.6549068e-38
0.52138186 1.0595236 -0.98759276 0 0 0 2.6549068e-38
0.48672676 1.0551815 -0.9867211 0 0 0 2.6549068e-38
0.44631863 1.059309 -0.98497778 0 0 0 2.6549068e-38
0.40204525 1.0727425 -0.98236275 0 0 0 2.6549068e-38
0.36180735 1.0771856 -0.98061949 0 0 0 2.6549068e-38
0.32552195 1.0726061 -0.97974777 0 0 0 2.6549068e-38
0.28154993 1.0865269 -0.97713286 0 0 0 2.6549068e-38
0.24534941 1.0822229 -0.97626114 0 0 0 2.6549068e-38
0.20916462 1.0780439 -0.97538948 0 0 0 2.6549068e-38
0.17299557 1.0739908 -0.97451776 0 0 0 2.6549068e-38
0.13684559 1.0700626 -0.97364616 0 0 0 2.6549068e-38
0.098804951 1.0762291 -0.97190285 0 0 0 2.6549068e-38
0.062716007 1.0725565 -0.97103113 0 0 0 2.6549068e-38
0.022997856 1.0782785 -0.96928787 0 0 0 2.6549068e-38
-0.016644955 1.0841494 -0.9675445 0 0 0 2.6549068e-38
-0.059797049 1.0994596 -0.96492952 0 0 0 2.6549068e-38
-0.092137337 1.0870256 -0.96492952 0 0 0 2.6549068e-38
-0.12977743 1.0940065 -0.96318626 0 0 0 2.6549068e-38
-0.16213202 1.0817938 -0.96318626 0 0 0 2.6549068e-38
-0.20147085 1.088357 -0.96144289 0 0 0 2.6549068e-38
-0.23728776 1.0857172 -0.96057123 0 0 0 2.6549068e-38
-0.27308321 1.0831995 -0.95969963 0 0 0 2.6549068e-38
-0.3020854 1.0620689 -0.96057123 0 0 0 2.6549068e-38
-0.34125233 1.0691557 -0.95882791 0 0 0 2.6549068e-38
-0.37700891 1.0669985 -0.95795625 0 0 0 2.6549068e-38
-0.41274476 1.0649624 -0.9570846 0 0 0 2.6549068e-38
-0.44845724 1.0630493 -0.95621288 0 0 0 2.6549068e-38
-0.48558402 1.0712986 -0.95446962 0 0 0 2.6549068e-38
-0.52442908 1.0790653 -0.95272624 0 0 0 2.6549068e-38
-0.55682635 1.0680923 -0.95272624 0 0 0 2.6549068e-38
-0.59241128 1.0666714 -0.95185465 0 0 0 2.6549068e-38
-0.63109255 1.0748329 -0.95011127 0 0 0 2.6549068e-38
-0.65423012 1.0357847 -0.95272624 0 0 0 2.6549068e-38
-0.68370318 1.0157404 -0.9535979 0 0 0 2.6549068e-38
-0.70720267 0.97680092 -0.95621288 0 0 0 2.6549068e-38
-0.73091817 0.93790531 -0.95882791 0 0 0 2.6549068e-38
-0.75484085 0.89905834 -0.96144289 0 0 0 2.6549068e-38
-0.76241946 0.813241 -0.96841615 0 0 0 2.6549068e-38
-0.77233672 0.72680855 -0.97538948 0 0 0 2.6549068e-38
-0.7827673 0.64033413 -0.98236275 0 0 0 2.6549068e-38
-0.78800321 0.53473091 -0.99107939 0 0 0 2.6549068e-38
-0.78630137 0.41051865 -1.0015393 0 0 0 2.6549068e-38
-0.79563642 0.3143177 -1.0093843 0 0 0 2.6549068e-38
-0.79919767 0.18879318 -1.0198443 0 0 0 2.6549068e-38
-0.804317 0.07331562 -1.0294325 0 0 0 2.6549068e-38
-0.80001831 -0.070440292 -1.0416358 0 0 0 2.6549068e-38
-0.78786707 -0.25326824 -1.0573257 0 0 0 2.6549068e-38
-0.73715115 -0.58034801 -1.0860906 0 0 0 2.6549068e-38
-0.77214527 -0.60025501 -1.0869621 0 0 0 2.6549068e-38
-0.8175745 -0.58158016 -1.0843472 0 0 0 2.6549068e-38
-0.85519004 -0.59162426 -1.0843472 0 0 0 2.6549068e-38
-0.89327097 -0.59136486 -1.0834755 0 0 0 2.6549068e-38
-0.89597321 -0.73618984 -1.0956788 0 0 0 2.6549068e-38
-0.88475823 -0.93902493 -1.113112 0 0 0 2.6549068e-38
-0.8845315 -1.1034107 -1.1270586 0 0 0 2.6549068e-38
0.89480591 1.0914078 -0.60636765 0 0 0 2.6549068e-38
0.87547112 0.88342285 -0.61591679 0 0 0 2.6549068e-38
0.8088522 0.94053078 -0.61167276 0 0 0 2.6549068e-38
0.78852654 0.89815235 -0.61326426 0 0 0 2.6549068e-38
0.75141001 0.89214134 -0.61273378 0 0 0 2.6549068e-38
0.70195723 0.91355801 -0.61061174 0 0 0 2.6549068e-38
0.66494894 0.90784359 -0.61008126 0 0 0 2.6549068e-38
0.62389135 0.91138554 -0.60902023 0 0 0 2.6549068e-38
0.58290577 0.91508007 -0.60795921 0 0 0 2.6549068e-38
0.55181503 0.90143013 -0.60795921 0 0 0 2.6549068e-38
0.50693512 0.91456318 -0.60636765 0 0 0 2.6549068e-38
0.47401333 0.90035057 -0.60636765 0 0 0 2.6549068e-38
0.44104719 0.88624191 -0.60636765 0 0 0 2.6549068e-38
0.39249659 0.90903282 -0.60424566 0 0 0 2.6549068e-38
0.34412813 0.932024 -0.60212362 0 0 0 2.6549068e-38
0.31892061 0.89987659 -0.6031847 0 0 0 2.6549068e-38
0.285954 0.88625526 -0.6031847 0 0 0 2.6549068e-38
0.24540472 0.89123154 -0.60212362 0 0 0 2.6549068e-38
0.208673 0.88710022 -0.6015932 0 0 0 2.6549068e-38
0.17378521 0.88382816 -0.60106266 0 0 0 2.6549068e-38
0.13708687 0.87994576 -0.60053211 0 0 0 2.6549068e-38
0.093093395 0.89477444 -0.59894061 0 0 0 2.6549068e-38
0.05648613 0.89116669 -0.59841013 0 0 0 2.6549068e-38
0.019898891 0.88768673 -0.59787959 0 0 0 2.6549068e-38
-0.023808956 0.90298462 -0.59628808 0 0 0 2.6549068e-38
-0.06554842 0.91914654 -0.59469658 0 0 0 2.6549068e-38
-0.10898376 0.93477917 -0.59310502 0 0 0 2.6549068e-38
-0.13487458 0.9037838 -0.5941661 0 0 0 2.6549068e-38
-0.16782689 0.89158726 -0.5941661 0 0 0 2.6549068e-38
-0.20766139 0.89825821 -0.59310502 0 0 0 2.6549068e-38
-0.26437759 0.95203495 -0.58939153 0 0 0 2.6549068e-38
-0.30054069 0.9496479 -0.58886099 0 0 0 2.6549068e-38
-0.32334518 0.90973282 -0.59045255 0 0 0 2.6549068e-38
-0.35627794 0.89812946 -0.59045255 0 0 0 2.6549068e-38
-0.40234351 0.92436409 -0.58833051 0 0 0 2.6549068e-38
-0.44314075 0.94196796 -0.586739 0 0 0 2.6549068e-38
-0.47275496 0.92128658 -0.58726948 0 0 0 2.6549068e-38
-0.50883508 0.9196167 -0.586739 0 0 0 2.6549068e-38
-0.54173565 0.90859509 -0.586739 0 0 0 2.6549068e-38
-0.58092523 0.9166441 -0.58567798 0 0 0 2.6549068e-38
-0.61383486 0.90584946 -0.58567798 0 0 0 2.6549068e-38
-0.64677835 0.89515877 -0.58567798 0 0 0 2.6549068e-38
-0.67975283 0.88457108 -0.58567798 0 0 0 2.6549068e-38
-0.72780442 0.92169762 -0.58302546 0 0 0 2.6549068e-38
-0.75771689 0.90183353 -0.583556 0 0 0 2.6549068e-38
-0.76819372 0.82537842 -0.58726948 0 0 0 2.6549068e-38
-0.55432415 -0.12212372 -0.63872856 0 0 0 2.6549068e-38
-0.79817295 -0.22413826 -0.64032006 0 0 0 2.6549068e-38
-0.75516129 -0.52308083 -0.65623522 0 0 0 2.6549068e-38
-0.78473091 -0.5622282 -0.65782672 0 0 0 2.6549068e-38
-0.82487535 -0.56273079 -0.65729618 0 0 0 2.6549068e-38
-0.86243153 -0.572752 -0.65729618 0 0 0 2.6549068e-38
-0.89033794 -0.6110878 -0.65888774 0 0 0 2.6549068e-38
-0.91804457 -0.65957451 -0.66100979 0 0 0 2.6549068e-38
-0.91144371 -0.84346294 -0.67055881 0 0 0 2.6549068e-38
-0.92060781 -0.9694109 -0.67692488 0 0 0 2.6549068e-38
0.87619686 0.70254421 -0.21312068 0 0 0 2.6549068e-38
0.81358385 0.75085926 -0.2118521 0 0 0 2.6549068e-38
0.80896711 0.67190552 -0.21312068 0 0 0 2.6549068e-38
0.79164076 0.62024975 -0.2138456 0 0 0 2.6549068e-38
0.65260553 -0.1133213 -0.22508155 0 0 0 2.6549068e-38
0.56029892 0.011079788 -0.22236316 0 0 0 2.6549068e-38
0.51710653 0.015268326 -0.22200072 0 0 0 2.6549068e-38
0.48136234 0.0010299683 -0.22200072 0 0 0 2.6549068e-38
0.48213339 -0.1061554 -0.22381297 0 0 0 2.6549068e-38
0.48227882 -0.21345711 -0.22562522 0 0 0 2.6549068e-38
0.44784021 -0.22680473 -0.22562522 0 0 0 2.6549068e-38
0.42918062 -0.28752327 -0.22653134 0 0 0 2.6549068e-38
0.4016099 -0.31941128 -0.2268938 0 0 0 2.6549068e-38
0.36129904 -0.32392502 -0.22671255 0 0 0 2.6549068e-38
0.019748211 0.37045956 -0.21275824 0 0 0 2.6549068e-38
-0.018300533 0.36717606 -0.21257702 0 0 0 2.6549068e-38
0.011535168 0.17592239 -0.2160203 0 0 0 2.6549068e-38
0.060391426 -0.072117805 -0.22055092 0 0 0 2.6549068e-38
0.064385414 -0.19803333 -0.22272561 0 0 0 2.6549068e-38
0.13909817 -0.52152634 -0.22870605 0 0 0 2.6549068e-38
0.039413929 -0.35509586 -0.22526276 0 0 0 2.6549068e-38
-0.021430969 -0.29148102 -0.22381297 0 0 0 2.6549068e-38
-0.054920197 -0.31349373 -0.2239942 0 0 0 2.6549068e-38
-0.050236464 -0.44912434 -0.22635011 0 0 0 2.6549068e-38
-0.062168121 -0.53746891 -0.22779992 0 0 0 2.6549068e-38
-0.23309708 -0.15171719 -0.22018847 0 0 0 2.6549068e-38
-0.31893206 -0.011499405 -0.21728887 0 0 0 2.6549068e-38
-0.36396313 0.0054349899 -0.2167452 0 0 0 2.6549068e-38
-0.39973378 -0.0060358047 -0.2167452 0 0 0 2.6549068e-38
-0.65628791 0.68879032 -0.20333453 0 0 0 2.6549068e-38
-0.71076989 0.74504089 -0.20206596 0 0 0 2.6549068e-38
-0.72061872 0.65822887 -0.20351575 0 0 0 2.6549068e-38
-0.47694635 -0.26056194 -0.22073214 0 0 0 2.6549068e-38
-0.50862885 -0.28063393 -0.22091337 0 0 0 2.6549068e-38
-0.52527046 -0.35871029 -0.22218193 0 0 0 2.6549068e-38
-0.55730224 -0.37865639 -0.22236316 0 0 0 2.6549068e-38
-0.60268998 -0.36072731 -0.22181949 0 0 0 2.6549068e-38
-0.68876934 -0.20872593 -0.21873866 0 0 0 2.6549068e-38
-0.73343897 -0.19032955 -0.21819499 0 0 0 2.6549068e-38
-0.76169133 -0.22951031 -0.21873866 0 0 0 2.6549068e-38
-0.71242976 -0.54796791 -0.22453786 0 0 0 2.6549068e-38
-0.74463964 -0.57762432 -0.22490032 0 0 0 2.6549068e-38
-0.78224015 -0.58789635 -0.22490032 0 0 0 2.6549068e-38
-0.82037807 -0.58783436 -0.22471909 0 0 0 2.6549068e-38
-0.86057115 -0.58820343 -0.22453786 0 0 0 2.6549068e-38
-0.89567661 -0.60778522 -0.22471909 0 0 0 2.6549068e-38
-0.92587423 -0.64662552 -0.22526276 0 0 0 2.6549068e-38
-0.91429853 -0.85009956 -0.22888727 0 0 0 2.6549068e-38
-0.9210515 -0.98589039 -0.23124319 0 0 0 2.6549068e-38
-0.92139482 -1.1508694 -0.23414281 0 0 0 2.6549068e-38
0.67393684 -0.6374712 0.66985279 0 0 0 2.6549068e-38
0.621696 -0.61495686 0.66778052 0 0 0 2.6549068e-38
0.58038664 -0.62020111 0.66726249 0 0 0 2.6549068e-38
0.54118919 -0.62450409 0.66674447 0 0 0 2.6549068e-38
0.49990702 -0.62947178 0.66622639 0 0 0 2.6549068e-38
0.45723677 -0.62416363 0.66519028 0 0 0 2.6549068e-38
0.40351963 -0.60152435 0.663118 0 0 0 2.6549068e-38
0.3623991 -0.60602856 0.66259998 0 0 0 2.6549068e-38
0.32470417 -0.61977768 0.66259998 0 0 0 2.6549068e-38
0.28358507 -0.62401199 0.6620819 0 0 0 2.6549068e-38
0.23578596 -0.60929012 0.66052771 0 0 0 2.6549068e-38
0.19144011 -0.60380459 0.6594916 0 0 0 2.6549068e-38
0.15374994 -0.6170187 0.6594916 0 0 0 2.6549068e-38
0.1148572 -0.61994934 0.65897352 0 0 0 2.6549068e-38
0.073885441 -0.62347317 0.65845549 0 0 0 2.6549068e-38
0.028621674 -0.60723019 0.65690124 0 0 0 2.6549068e-38
-0.017518044 -0.60169601 0.65586513 0 0 0 2.6549068e-38
-0.055200577 -0.61425304 0.65586513 0 0 0 2.6549068e-38
-0.099144697 -0.60771275 0.65482903 0 0 0 2.6549068e-38
-0.14301395 -0.601017 0.65379292 0 0 0 2.6549068e-38
-0.18679667 -0.59416103 0.65275675 0 0 0 2.6549068e-38
-0.22747755 -0.5966692 0.65223873 0 0 0 2.6549068e-38
-0.2651403 -0.60856628 0.65223873 0 0 0 2.6549068e-38
-0.30371284 -0.61015701 0.6517207 0 0 0 2.6549068e-38
-0.34729314 -0.60272503 0.65068454 0 0 0 2.6549068e-38
-0.39078379 -0.59513664 0.64964843 0 0 0 2.6549068e-38
-0.43131876 -0.59695721 0.64913034 0 0 0 2.6549068e-38
-0.47542715 -0.57887459 0.64757621 0 0 0 2.6549068e-38
-0.51303577 -0.58999252 0.64757621 0 0 0 2.6549068e-38
-0.54579949 -0.60997391 0.64809424 0 0 0 2.6549068e-38
-0.59320521 -0.60287762 0.64705813 0 0 0 2.6549068e-38
-0.63697195 -0.5842104 0.64550394 0 0 0 2.6549068e-38
-0.67728949 -0.58520412 0.64498585 0 0 0 2.6549068e-38
-0.71491694 -0.59568882 0.64498585 0 0 0 2.6549068e-38
-0.75257707 -0.60605526 0.64498585 0 0 0 2.6549068e-38
-0.79287481 -0.6066618 0.64446783 0 0 0 2.6549068e-38
-0.84086752 -0.57818794 0.64239556 0 0 0 2.6549068e-38
-0.86874151 -0.61657619 0.64394975 0 0 0 2.6549068e-38
-0.91149783 -0.60713005 0.64291364 0 0 0 2.6549068e-38
-0.9230926 -0.87819386 0.65638322 0 0 0 2.6549068e-38
-0.93739533 -0.98478222 0.66156381 0 0 0 2.6549068e-38
-0.93797016 -1.1495724 0.66985279 0 0 0 2.6549068e-38
0.73206234 0.34254646 0.20298268 0 0 0 2.6549068e-38
0.68161011 0.36439991 0.20230776 0 0 0 2.6549068e-38
0.6430583 0.35884762 0.20213903 0 0 0 2.6549068e-38
0.60451555 0.35342789 0.20197029 0 0 0 2.6549068e-38
0.56791162 0.34894371 0.20180157 0 0 0 2.6549068e-38
0.52746964 0.34298706 0.20163284 0 0 0 2.6549068e-38
0.49274969 0.32871342 0.20163284 0 0 0 2.6549068e-38
0.43919802 0.36087608 0.20078918 0 0 0 2.6549068e-38
0.39527082 0.37548256 0.20028301 0 0 0 2.6549068e-38
0.35695457 0.37091255 0.20011427 0 0 0 2.6549068e-38
0.31865549 0.36647511 0.19994552 0 0 0 2.6549068e-38
0.28036737 0.3621664 0.19977681 0 0 0 2.6549068e-38
0.23848581 0.36731434 0.19943935 0 0 0 2.6549068e-38
0.19667673 0.37261581 0.1991019 0 0 0 2.6549068e-38
0.16398096 0.3601141 0.1991019 0 0 0 2.6549068e-38
0.12226343 0.36569309 0.19876443 0 0 0 2.6549068e-38
0.086042404 0.36277676 0.19859569 0 0 0 2.6549068e-38
0.042528152 0.36793232 0.19825824 0 0 0 2.6549068e-38
0.0044522285 0.36457062 0.1980895 0 0 0 2.6549068e-38
-0.030191898 0.35194016 0.1980895 0 0 0 2.6549068e-38
-0.068261623 0.34882736 0.19792077 0 0 0 2.6549068e-38
-0.10630608 0.34584618 0.19775203 0 0 0 2.6549068e-38
-0.14433217 0.34299374 0.19758332 0 0 0 2.6549068e-38
-0.18233776 0.34027195 0.19741458 0 0 0 2.6549068e-38
-0.22165489 0.34779739 0.19707711 0 0 0 2.6549068e-38
-0.25958943 0.34533596 0.1969084 0 0 0 2.6549068e-38
-0.29877567 0.35313034 0.19657093 0 0 0 2.6549068e-38
-0.33855891 0.35028744 0.19640219 0 0 0 2.6549068e-38
-0.37010479 0.32924271 0.19657093 0 0 0 2.6549068e-38
-0.39862871 0.29878712 0.1969084 0 0 0 2.6549068e-38
-0.43656802 0.29693317 0.19673966 0 0 0 2.6549068e-38
-0.48058724 0.31424999 0.19623347 0 0 0 2.6549068e-38
-0.51841474 0.31267262 0.19606474 0 0 0 2.6549068e-38
-0.55621481 0.31122589 0.195896 0 0 0 2.6549068e-38
-0.59205842 0.31050587 0.19572727 0 0 0 2.6549068e-38
-0.62981153 0.30930519 0.19555855 0 0 0 2.6549068e-38
-0.65590668 0.26996899 0.19606474 0 0 0 2.6549068e-38
-0.67934155 0.22110844 0.19673966 0 0 0 2.6549068e-38
-0.68684959 0.12494659 0.19825824 0 0 0 2.6549068e-38
-0.69124818 0.0089635849 0.20011427 0 0 0 2.6549068e-38
-0.67481017 -0.1737318 0.20315142 0 0 0 2.6549068e-38
-0.61045671 -0.55061245 0.20956318 0 0 0 2.6549068e-38
-0.64589071 -0.56071568 0.20956318 0 0 0 2.6549068e-38
-0.68343854 -0.5712986 0.20956318 0 0 0 2.6549068e-38
-0.71835566 -0.59139919 0.20973189 0 0 0 2.6549068e-38
-0.76127553 -0.58246613 0.20939444 0 0 0 2.6549068e-38
-0.79628754 -0.60233974 0.20956318 0 0 0 2.6549068e-38
-0.83654428 -0.60278893 0.20939444 0 0 0 2.6549068e-38
-0.87212944 -0.61222076 0.20939444 0 0 0 2.6549068e-38
-0.91236067 -0.61241722 0.2092257 0 0 0 2.6549068e-38
-0.92149687 -0.8934803 0.21378143 0 0 0 2.6549068e-38
-0.93583536 -1.0001945 0.21546873 0 0 0 2.6549068e-38
