# .PCD v0.7 - Point Cloud Data file format
VERSION 0.7
FIELDS x y z
SIZE 4 4 4
TYPE F F F
COUNT 1 1 1
WIDTH 975
HEIGHT 1
VIEWPOINT 0 0 0 1 0 0 0
POINTS 975
DATA ascii
-5.6390629 8.541379 -0.93973911
-5.5706182 8.5053425 -0.93352175
-5.51228 8.4839516 -0.92895013
-5.4737215 8.4828186 -0.92693859
-5.4082351 8.4491463 -0.92108697
-5.3516102 8.4285593 -0.91669822
-5.3357272 8.4621773 -0.91852683
-5.3652973 8.5786047 -0.74996221
-5.3383203 8.595418 -0.74996221
-5.3203797 8.6370029 -0.75188404
-5.2949271 8.6666574 -0.75277102
-5.3263941 8.7803888 -0.57973647
-5.257329 8.6661959 -0.75129271
-5.3541751 8.0130892 -1.3401949
-5.2818236 8.7793198 -0.5783838
-5.1329885 8.5315924 -0.73798764
-5.074172 8.4338331 -0.90371484
-5.3489037 8.069066 -1.1751227
-5.3324313 8.0442171 -1.3421233
-5.2690496 8.8312006 -0.58052558
-5.0904427 8.5315075 -0.73636144
-5.024858 8.4215879 -0.90042329
-5.2876568 8.0405092 -1.1681337
-5.3072658 8.0703278 -1.3432251
-5.1771631 8.7394762 -0.57342398
-5.0402331 8.5079889 -0.7329613
-5.5746198 8.5351582 -0.87665486
-5.0146174 8.4647493 -0.9033491
-5.2319713 8.0105371 -1.1613857
-5.1238565 8.7222366 -0.57105678
-5.0059853 8.521246 -0.73251778
-5.516211 8.5137253 -0.87237096
-5.0612378 8.6152973 -0.91742969
-5.373991 8.2942219 -1.0247965
-5.1842227 8.0013332 -1.1572887
-5.1617293 7.9666171 -1.3200852
-5.076777 8.7150764 -0.56936592
-4.9576521 8.5102386 -0.73000461
-5.4634223 8.5003605 -0.86894387
-4.8652143 8.3515615 -0.88743997
-5.3360257 8.3021488 -1.0233526
-5.1280246 7.9785261 -1.1512636
-5.0725164 7.8921628 -1.3046584
-5.0333781 8.7033262 -0.5675624
-4.923902 8.5136852 -0.72896975
-5.4484839 8.5359583 -0.87082881
-4.9326811 8.5288649 -0.90462917
-5.2938623 8.2937183 -1.0202584
-5.1082749 8.002965 -1.1524687
-5.0338416 7.8863525 -1.3010772
-4.9915118 8.7043934 -0.56643516
-4.9908953 8.7029667 -0.74360532
-5.361732 8.4683256 -0.86191827
-5.3581376 9.3433523 -0.98892957
-5.245338 8.2844925 -1.0167516
-5.0396113 7.9595675 -1.1435516
-4.9964256 7.8913603 -1.2988734
-4.9437833 8.6948566 -0.56463158
-5.0871277 8.946599 -0.76282376
-5.3285384 8.4845448 -0.8615756
-5.2825103 9.2902136 -0.98124927
-5.1916623 8.2665997 -1.0122135
-5.0061803 7.9712596 -1.1425875
-4.9653616 7.9062648 -1.2983224
-5.1730452 9.1649599 -0.40760666
-5.1127477 9.0581322 -0.58717626
-5.3609672 9.49751 -0.80835664
-5.3197832 8.5299864 -0.8644886
-5.2993112 9.3882799 -0.9898439
-5.1540866 8.2643013 -1.0099444
-4.9558978 7.946516 -1.1368035
-4.9331613 7.910059 -1.2963941
-5.0671978 9.0548029 -0.4018788
-5.3076968 9.4845619 -0.61355352
-5.3222246 9.5101328 -0.80776531
-5.2609749 9.4006872 -0.98911244
-5.0986452 8.2425327 -1.0049937
-4.9142056 7.944365 -1.1339115
-4.8707886 7.874177 -1.2875788
-5.0358148 9.0654364 -0.40164661
-5.2875705 9.5186453 -0.61468077
-5.3669024 9.6610603 -0.81914854
-5.1792068 8.4318638 -0.85095155
-4.6839986 8.4317522 -0.8856113
-5.0664783 8.2483397 -1.003756
-4.8850665 7.9529972 -1.1329476
-4.9020147 7.9805894 -1.3024546
-5.0093031 9.0960865 -0.40218842
-5.3056269 9.6341629 -0.62088054
-5.1254601 8.413352 -0.84718174
-4.6434555 8.4314184 -0.88378268
-5.0196528 8.2396708 -1.0004555
-4.8393574 7.9437194 -1.1290915
-4.8449049 7.9528255 -1.2950168
-4.9357095 9.0407133 -0.39893749
-5.2204332 9.5618439 -0.80746967
-5.0791326 8.406498 -0.84461141
-4.5982056 8.4221592 -0.88103968
-4.9832468 8.247798 -0.99921787
-4.8071294 7.956305 -1.1283685
-4.77987 7.9111872 -1.285375
-4.8758626 8.9981899 -0.39638317
-4.7014737 8.676363 -0.55707908
-4.6107044 8.5084972 -0.71729088
-5.0485973 8.4155788 -0.84392595
-4.5612864 8.4173021 -0.8790282
-4.9501472 8.2514706 -0.99777389
-4.7647471 7.9424243 -1.1242715
-4.7743549 7.9584398 -1.2906091
-4.8248816 8.9825487 -0.39491251
-4.6649175 8.6847401 -0.55651546
-4.7361646 8.8170137 -0.7418313
-4.9953046 8.3963509 -0.84015614
-4.5256925 8.4251909 -0.87811387
-4.8832541 8.2080116 -0.99034786
-4.7173319 7.9291215 -1.1199335
-4.7259097 7.9435391 -1.285375
-4.772203 8.9631271 -0.39328703
-4.685607 8.8004837 -0.562828
-5.0881462 9.5561285 -0.80244327
-4.9533587 8.3957253 -0.83827126
-4.4844861 8.4223843 -0.87610239
-4.8622351 8.2412748 -0.99220437
-4.6801677 7.9326782 -1.1180054
-4.6887107 7.9471583 -1.2831712
-4.7253475 8.9427357 -0.39173895
-4.6560707 8.8116293 -0.56260252
-5.0515766 9.5597219 -0.80140847
-4.9078226 8.3785763 -0.83501548
-4.4552126 8.4311485 -0.87555379
-4.8202329 8.2290449 -0.98890388
-4.6431813 7.926784 -1.1151134
-4.6376891 7.9174075 -1.2760088
-4.6823397 8.9405203 -0.39088753
-4.5996566 8.7826443 -0.55967176
-5.0035496 9.5534363 -0.79933876
-4.8740783 8.3913393 -0.83450139
-4.4131927 8.4262495 -0.87335938
-4.7810469 8.2311745 -0.98704737
-4.6071167 7.9317312 -1.1134264
-4.6146088 7.9446301 -1.2776617
-4.6375704 8.9345627 -0.38988128
-4.5536366 8.7728586 -0.5579809
-4.8393116 8.4022408 -0.83381599
-4.3758564 8.4299946 -0.87207937
-4.7429032 8.2348518 -0.98539716
-4.5790052 7.9502845 -1.1136674
-4.5854592 7.9614902 -1.2776617
-4.6067338 8.943758 -0.38964906
-4.5205674 8.7764702 -0.55730456
-4.9503741 8.6578503 -0.85763443
-4.3420553 8.4295359 -0.87061644
-4.70121 8.2220802 -0.98209667
-4.5421801 7.9439478 -1.1107754
-4.5309267 7.9242663 -1.2693974
-4.558476 8.9303226 -0.3883332
-5.3490481 9.4351883 -0.93268812
-4.2948308 8.4134636 -0.86732489
-4.6739864 8.2444468 -0.98271549
-4.5110755 7.957088 -1.1102934
-4.5174837 7.9683919 -1.273805
-4.5184975 8.932703 -0.38771397
-5.3393216 8.592679 -0.69073445
-5.2997847 9.4286747 -0.93011779
-4.2666621 8.4344807 -0.86787349
-4.6164446 8.212966 -0.97693968
-4.4711795 7.9545302 -1.1076424
-4.4736881 7.958993 -1.2696729
-4.4841371 8.934351 -0.38717216
-5.3311605 8.6399765 -0.69318676
-4.2312093 8.4300432 -0.86604482
-4.5634794 8.1787872 -0.97116387
-4.4432654 7.963336 -1.1069194
-4.4428711 7.9626293 -1.26802
-4.4424615 8.9328327 -0.38639811
-4.2614794 8.5685406 -0.70930785
-4.8178406 8.7095299 -0.85592085
-4.2002835 8.4454947 -0.86604482
-4.5517678 8.2285318 -0.97508317
-4.4150095 7.9813051 -1.1071603
-4.3743434 7.9077902 -1.2567254
-4.396441 8.9221649 -0.38523707
-5.3271074 8.7767277 -0.51902026
-4.2832999 8.6925554 -0.54704672
-5.2780366 8.6958809 -0.69454914
-4.2000704 8.5232735 -0.70428145
-5.1902194 9.4644365 -0.92823291
-4.1569762 8.4358215 -0.86348474
-4.5148826 8.2329502 -0.97363919
-4.3685431 7.9660983 -1.1028224
-4.3596177 7.9498234 -1.2608576
-4.3657565 8.9305458 -0.38500485
-5.3108497 8.8122387 -0.52013105
-4.2463236 8.6862354 -0.54580677
-4.1601329 8.5095482 -0.70206398
-5.1433129 9.449193 -0.92514849
-4.1164579 8.4202118 -0.86055893
-4.4908977 8.2505884 -0.97405177
-4.3406477 7.9745517 -1.1020994
-4.3431449 7.9791393 -1.2633369
-4.3242836 8.9285011 -0.38423082
-5.2457232 8.7767792 -0.51689976
-4.2144585 8.7017412 -0.54580677
-4.1323934 8.5319185 -0.70265532
-5.6258125 8.538476 -0.8192898
-4.6960931 8.7033873 -0.85043746
-4.0855689 8.4352427 -0.86055893
-4.4426794 8.2337284 -0.97013247
-4.3010197 7.9711871 -1.0994483
-4.2941165 7.9583936 -1.2575519
-4.2944818 8.9384394 -0.38407603
-5.2181244 8.7932158 -0.51689976
-4.1741295 8.6879396 -0.5441159
-4.098659 8.5304766 -0.70147264
-5.5771279 8.5227442 -0.81609505
-4.5708942 8.535409 -0.83261651
-4.0521483 8.4336748 -0.85909599
-5.557375 8.4928818 -0.99284756
-4.4092774 8.2336149 -0.96848226
-4.2712698 7.9759083 -1.0982434
-4.2653527 7.9648595 -1.2564499
-4.2556796 8.9414873 -0.38353419
-5.1585078 8.7658024 -0.51417339
-4.140542 8.6995745 -0.54389048
-4.0622225 8.5346365 -0.7005856
-5.5241427 8.5096846 -0.8129003
-4.5293026 8.5327444 -0.83073157
-4.0220661 8.4502678 -0.85927886
-5.4926124 8.4614372 -0.98681146
-4.3762717 8.2444496 -0.96786338
-4.242939 7.9932637 -1.0984844
-4.1980519 7.9087009 -1.2451555
-4.2220268 8.9552174 -0.3834568
-5.1122503 8.7604971 -0.51275975
-4.1026678 8.7020493 -0.54310137
-4.0300636 8.5476637 -0.70043778
-5.4821224 8.513113 -0.81130296
-4.4859366 8.5263624 -0.82850397
-3.9893687 8.4613504 -0.85891312
-4.3386149 8.2463493 -0.96621317
-4.1960492 7.9753766 -1.0939053
-4.1662698 7.9187751 -1.244329
-4.1820207 8.9430923 -0.38237315
-5.0766926 8.7626877 -0.51195192
-4.0634675 8.6895714 -0.54152328
-4.10289 8.7734766 -0.71788222
-4.4489837 8.5209837 -0.82661903
-3.9543302 8.4558001 -0.85708451
-5.3533888 8.3711815 -0.97201318
-4.3117661 8.2581758 -0.96600688
-4.1746488 7.9955592 -1.0948694
-4.1331201 7.9160209 -1.2418497
-4.1550937 8.9710541 -0.38291496
-5.0296173 8.7552557 -0.51043725
-4.0315914 8.7044067 -0.54152328
-4.9120274 8.5505629 -0.6732958
-4.1771684 9.018301 -0.73665714
-5.3834672 8.4862604 -0.80523294
-4.408565 8.5195351 -0.82490551
-3.8940144 8.4069853 -0.85068423
-5.3248034 8.3941078 -0.97240257
-4.2686696 8.2491884 -0.96311897
-4.1407533 8.0019903 -1.0936643
-4.0977058 7.9188008 -1.2399213
-4.1171856 8.9753237 -0.38245055
-4.986619 8.7545395 -0.50932652
-3.9896703 8.6973448 -0.54017061
-5.1068125 8.9655523 -0.70449466
-3.9328487 8.573081 -0.69910729
-5.3459568 8.4958105 -0.80427456
-4.3673072 8.5161324 -0.82302058
-3.8590229 8.4121504 -0.84976995
-5.2113161 8.2821589 -0.95721489
-4.2329597 8.2541571 -0.96188128
-4.1050549 8.0047464 -1.0919774
-4.0749822 7.9461055 -1.2418497
-4.0964165 9.0045862 -0.38314718
-4.9669566 8.7840719 -0.51013434
-3.9829986 8.7552748 -0.54298866
-5.3644223 9.4869919 -0.74414033
-3.8992887 8.5708704 -0.69792461
-5.3319178 8.5328512 -0.80619138
-4.3369169 8.522706 -0.82233518
-3.8457723 8.4532375 -0.85269576
-5.1715589 8.2765455 -0.9546836
-4.1979856 8.2496853 -0.95981848
-4.0816875 8.021142 -1.0924593
-4.0446081 7.9482751 -1.2401968
-4.0658484 9.0250063 -0.3833794
-5.3039532 9.4608164 -0.54830354
-3.9426804 8.7516088 -0.54186141
-5.3374209 9.5205135 -0.74523026
-3.8899693 8.6342039 -0.7019161
-4.2984729 8.5243111 -0.82096434
-3.8384883 8.5199356 -0.85799879
-5.1170716 8.2565298 -0.95020515
-4.1650338 8.2596874 -0.95919967
-4.0433216 8.0183201 -1.0900493
-4.0163412 7.9648147 -1.2404723
-4.0285087 9.017663 -0.38252795
-5.3111148 9.5437574 -0.55214065
-3.9151669 8.7639523 -0.54186141
-5.3295326 8.6596441 -0.63403088
-5.3550291 9.6226683 -0.75190598
-4.0963192 9.1690254 -0.74434447
-5.2057934 8.4585876 -0.79580849
-4.2618642 8.5181704 -0.8190794
-3.7897689 8.4828558 -0.8530615
-5.0921512 8.2742605 -0.95039988
-4.1328335 8.2602777 -0.95775568
-4.0216651 8.0380859 -1.0910133
-4.0001626 7.9951086 -1.2432271
-4.0067487 9.0579557 -0.38361159
-5.293468 9.5946398 -0.55395824
-4.0647707 9.1891241 -0.5672242
-5.3112779 8.7012691 -0.63564897
-4.0965753 9.2605867 -0.75055355
-5.1467118 8.4316664 -0.79149562
-4.2235341 8.5194511 -0.81770855
-3.7562351 8.4912252 -0.8525129
-5.0337901 8.246995 -0.94514263
-4.0981126 8.2664585 -0.95672429
-3.985122 8.0385408 -1.0890853
-3.9664328 8.0008421 -1.2418497
-3.9927649 9.1165152 -0.38546929
-4.0607038 9.271636 -0.57139498
-5.2106218 9.526866 -0.74141556
-4.0770092 9.3084249 -0.75321454
-5.116806 8.452179 -0.79165536
-4.1773458 8.5044689 -0.81479555
-3.726686 8.508584 -0.85287863
-5.0014682 8.2619839 -0.94475317
-4.0625248 8.27071 -0.9554866
-3.9600091 8.0620031 -1.0902903
-3.9781291 8.0988932 -1.2547971
-3.9911692 9.1913404 -0.38810101
-4.7363005 8.7246323 -0.50185424
-5.2457571 8.7269545 -0.63490218
-5.1397319 9.467783 -0.73555726
-4.0548959 9.3376522 -0.75454503
-5.0624962 8.4220781 -0.78734243
-4.1523533 8.5211334 -0.81513822
-3.6999371 8.5202494 -0.85287863
-4.9662585 8.2623014 -0.94300073
-4.0382643 8.2870083 -0.95589918
-3.9320529 8.0690498 -1.0895673
-3.9517984 8.1095705 -1.2545216
-3.987447 9.2756767 -0.39104232
-5.3027115 8.8950272 -0.46228027
-4.6957726 8.7261028 -0.50094545
-5.122016 9.5181856 -0.73800957
-4.0576687 9.4385729 -0.76149327
-5.0315938 8.4405766 -0.78734243
-4.1098318 8.5129671 -0.81291062
-3.6671109 8.5300941 -0.8525129
-4.9390001 8.2855778 -0.94358492
-3.9836471 8.2515917 -0.95012337
-3.902452 8.0834074 -1.0895673
-3.8815708 8.0401554 -1.2415742
-3.9737694 9.3380404 -0.39305481
-5.2344856 8.8542051 -0.45915857
-4.6609378 8.7379675 -0.50064254
-5.0664353 9.4981623 -0.73501229
-4.9843912 8.4315023 -0.78478664
-4.0829015 8.5369616 -0.81376737
-3.6311426 8.5324812 -0.85141569
-4.90556 8.2984838 -0.94300073
-3.9559517 8.2715216 -0.95074219
-3.8753684 8.1030302 -1.0902903
-3.8657513 8.082921 -1.2459818
-3.9848053 9.4462299 -0.3970798
-5.2036095 8.8654366 -0.458891
-4.6456127 8.7755165 -0.50195521
-5.030036 9.501688 -0.73405862
-4.9407229 8.4178915 -0.78207111
-4.0423961 8.5209408 -0.81102568
-3.6066415 8.5493517 -0.85196429
-4.8633447 8.2863874 -0.93988532
-3.9393258 8.3036795 -0.95301127
-3.8549988 8.1259279 -1.0917363
-3.853924 8.123662 -1.2503895
-4.8880181 9.3158312 -0.34531915
-3.9786468 9.529007 -0.39994374
-5.1519847 8.8516397 -0.45719635
-3.9576054 9.4786119 -0.57984924
-5.0144253 8.6156445 -0.6215843
-3.9762831 9.5228786 -0.76489341
-4.8978028 8.415267 -0.78015429
-4.0204606 8.5555372 -0.81291062
-3.7740369 9.0385151 -0.89932615
-4.8279347 8.2955551 -0.93891174
-3.9054804 8.3108597 -0.95218617
-3.8285675 8.1471901 -1.0927004
-3.8359184 8.1628323 -1.2542461
-4.8446183 9.3159494 -0.34466302
-3.9788039 9.6284885 -0.40350428
-5.1005316 8.8375845 -0.45550171
-4.5562782 8.761487 -0.49922884
-3.9129241 9.4690628 -0.5783838
-4.9578695 8.5907431 -0.61847264
-3.9200242 9.485775 -0.76075405
-4.8748984 8.4469748 -0.78143221
-3.9773037 8.5449238 -0.81051165
-3.7340379 9.0357208 -0.89768034
-4.7895384 8.2994022 -0.93735403
-3.8741539 8.3233147 -0.95197988
-3.8129241 8.1917677 -1.0967973
-3.8043025 8.1732454 -1.2536952
-4.837328 9.3737555 -0.34623772
-3.9811053 9.7204647 -0.40683264
-5.064796 8.8396959 -0.45478818
-4.5003347 8.7207317 -0.49609858
-3.9209969 9.5737009 -0.58402002
-4.9239101 8.5941525 -0.61760134
-3.8803768 9.4740496 -0.75883222
-5.0079002 8.7407484 -0.80714983
-3.9429228 8.5410948 -0.80896944
-3.6988392 9.0308199 -0.89603454
-4.7525568 8.2954092 -0.93521219
-3.8521554 8.3444757 -0.95301127
-3.8038135 8.2397575 -1.1016173
-3.7885704 8.2067385 -1.2570009
-4.8111305 9.4074402 -0.34682822
-3.976979 9.8127823 -0.41008359
-5.0244675 8.8443022 -0.45407465
-4.4847121 8.7691784 -0.49791616
-3.906132 9.6379747 -0.58706355
-5.0708385 8.9262886 -0.64012975
-3.8651056 9.5362682 -0.76267594
-5.3805537 9.4714861 -0.8728016
-3.8734784 8.472127 -0.80108708
-3.7801747 9.3267202 -0.92401278
-4.7034407 8.2798891 -0.93151259
-3.8215456 8.3585386 -0.95301127
-3.7991796 8.3096199 -1.1090884
-3.7914131 8.2926321 -1.26802
-4.7684855 9.4089632 -0.34623772
-3.9781797 9.9200373 -0.41395375
-4.9645619 8.8139143 -0.45157728
-4.4119077 8.7053804 -0.4933722
-5.3211923 9.4474497 -0.67610049
-3.8694756 9.6484842 -0.77051115
-5.3125381 9.4320841 -0.86737055
-3.8506196 8.5044193 -0.80280066
-3.8267708 9.5420008 -0.94394499
-4.6457114 8.2485104 -0.92606062
-3.8171415 8.43048 -0.95961219
-3.7818007 8.3524275 -1.1129444
-3.7871399 8.3642197 -1.2768352
-4.6877151 9.3221045 -0.3424978
-3.9772546 10.008634 -0.41712731
-4.9212465 8.8015642 -0.45015022
-4.376461 8.7031364 -0.49246341
-3.9104924 9.8406277 -0.59777224
-5.3226585 9.5198727 -0.68008339
-3.8246992 8.5182924 -0.80297202
-3.8328156 9.6446657 -0.9529053
-4.6217175 8.2665396 -0.92645001
-3.8077493 8.4805412 -0.96394408
-3.7913246 8.4439611 -1.1235485
-3.7884321 8.4375181 -1.2862015
-4.6588655 9.3499575 -0.34289148
-3.9785681 10.11986 -0.42115229
-4.874424 8.7933302 -0.44881234
-4.3427515 8.7155428 -0.49226144
-3.9014308 9.9236536 -0.60194302
-5.3312788 9.6178808 -0.68568438
-3.8642848 9.8286657 -0.78278136
-4.8277764 8.7095385 -0.79788506
-3.7894049 8.5231495 -0.8021152
-4.5798082 8.2625322 -0.92411345
-3.8041191 8.5562449 -0.97095758
-3.7829351 8.5085974 -1.1302965
-3.784039 8.5110798 -1.2952921
-4.6073222 9.3197498 -0.34125116
-3.9815738 10.221695 -0.42486766
-4.8332901 8.7840929 -0.44756365
-4.3064971 8.711237 -0.49125168
-3.9137213 10.047501 -0.60870641
-4.2365446 8.5697355 -0.65272361
-3.8674142 9.9281063 -0.78972954
-5.2097936 9.4687471 -0.86593294
-3.7449262 8.4948988 -0.79834539
-3.9145515 10.049113 -0.99020964
-4.5471115 8.2646713 -0.92275047
-3.8004918 8.6209421 -0.97693968
-3.7842174 8.5840254 -1.1387316
-3.7828526 8.5809298 -1.3041074
-4.5819254 9.3545256 -0.34190729
-3.9785728 10.325732 -0.42858303
-4.797235 8.794733 -0.44720688
-4.271904 8.7215815 -0.49094877
-3.9106121 10.149352 -0.61400443
-5.2312789 9.5908604 -0.6812036
-4.187552 8.549367 -0.64999884
-3.8618371 10.022243 -0.79608643
-5.1664619 9.4720268 -0.86449528
-3.7129686 8.5067406 -0.79817402
-3.9485874 10.247377 -1.0083132
-4.5120239 8.2725449 -0.92177689
-3.7927425 8.6895103 -0.98312807
-3.7805278 8.6615257 -1.1471666
-3.7878284 8.6782513 -1.3167794
-3.9841142 10.454162 -0.43330464
-4.7535648 8.7911663 -0.44613659
-4.2320609 8.7210073 -0.49003997
-3.9160531 10.275572 -0.62076783
-4.8315201 8.935709 -0.63340855
-4.1431217 8.5377302 -0.64795524
-3.8719592 10.159338 -0.80584347
-5.1099019 9.4505653 -0.86082137
-3.6849265 8.5276089 -0.79885948
-3.9258974 10.300863 -1.0121533
-4.4835668 8.2925282 -0.92216635
-3.7963781 8.7855291 -0.99241066
-3.772383 8.7299995 -1.1543967
-3.7842834 8.7575397 -1.3266965
-3.985132 10.556373 -0.43702
-4.7098613 8.7761278 -0.44462034
-4.1985774 8.7216606 -0.48933312
-3.9267716 10.40178 -0.62764394
-5.1337833 9.5664444 -0.67697173
-4.1058936 8.52913 -0.64632034
-3.8717244 10.255422 -0.81249601
-5.0792441 9.4648151 -0.86066163
-3.6510561 8.5226593 -0.79731727
-3.8907032 10.305693 -1.0114219
-4.4556108 8.3030653 -0.92177689
-3.7922597 8.8522701 -0.99859905
-3.7801204 8.8239336 -1.1652417
-3.7778137 8.8185492 -1.3341345
-3.9813628 10.664522 -0.44089016
-4.6664033 8.7721643 -0.44355002
-4.1648631 8.7333851 -0.48913118
-3.9242387 10.511509 -0.63339287
-5.0705633 9.5323277 -0.67323774
-4.0797586 8.5549278 -0.64713782
-3.8808508 10.394736 -0.82240087
-4.4883866 8.4378738 -0.76577801
-3.626796 8.552494 -0.79885948
-3.8445456 10.297494 -1.0092275
-4.414866 8.3000088 -0.91963506
-3.793962 8.9466944 -1.0076753
-3.7795341 8.912672 -1.1751227
-3.7856824 8.9271708 -1.3484592
-3.9872358 10.800907 -0.44592139
-4.6249018 8.7715349 -0.44265813
-4.120028 8.7215004 -0.48761654
-3.9257941 10.63447 -0.63993078
-5.0281439 9.5367222 -0.67224205
-4.0398531 8.5517817 -0.64577538
-3.8793366 10.508058 -0.83023608
-4.588531 8.7029228 -0.78830087
-3.5938828 8.5620546 -0.79851675
-3.8391962 10.399329 -1.0178221
-4.3788457 8.3055696 -0.91846675
-3.7888629 9.0265751 -1.0151014
-3.7791159 9.0033541 -1.1852448
-3.7713377 8.9848232 -1.3550707
-3.9903395 10.914738 -0.45010117
-4.5954695 8.7824802 -0.44247973
-4.092608 8.7344007 -0.48761654
-3.9307613 10.751774 -0.64624333
-4.0180464 8.5752716 -0.64659286
-3.8826044 10.619476 -0.83807129
-4.9576702 9.475091 -0.85682791
-3.797365 9.1270723 -0.85009474
-3.8427529 10.510476 -1.0275139
-4.3591905 8.3316317 -0.91982979
-3.7910533 9.1119013 -1.0233526
-3.7820818 9.0903387 -1.1951259
-3.7895103 9.1081924 -1.3718748
-3.9876714 11.032662 -0.45435837
-4.5531311 8.7797537 -0.44149864
-4.0614085 8.7511539 -0.48771751
-3.9334109 10.88254 -0.65323216
-3.9765096 8.568222 -0.64495796
-3.8890829 10.759311 -0.84797615
-4.9192381 9.4861183 -0.85618901
-3.8314111 9.3049164 -0.86534542
-3.8373785 10.616268 -1.0364742
-4.3185449 8.3281145 -0.91768789
-3.7917156 9.2085123 -1.0326351
-3.7857802 9.1940975 -1.2069349
-3.7719405 9.1604872 -1.3776598
-3.9922612 11.173296 -0.45954439
-4.5209212 8.7963829 -0.44149864
-4.0209641 8.7478323 -0.48670775
-3.9156697 10.958937 -0.65695202
-3.940912 8.5736742 -0.64427674
-3.881165 10.861769 -0.85492438
-3.833374 9.4074726 -0.87357044
-3.837311 10.739039 -1.0470804
-4.2825332 8.3332653 -0.91651964
-3.7842133 9.2868271 -1.0398549
-3.7722855 9.257555 -1.213442
-4.3123083 9.4598703 -0.34125116
-3.9891326 11.276219 -0.46325976
-4.4769254 8.7785044 -0.43989319
-4.0000906 8.7749615 -0.48751554
-3.91313 8.584197 -0.64414054
-3.8669796 10.930318 -0.85935938
-3.8187234 9.4564228 -0.87699759
-3.8380961 10.848677 -1.0565894
-4.2490983 8.3324919 -0.91496193
-3.7863026 9.3761377 -1.2274201
-3.9946089 11.424706 -0.46875542
-4.437511 8.7805882 -0.43917963
-3.9531085 8.756794 -0.48569795
-3.9213893 11.215296 -0.67070431
-3.8988819 8.636673 -0.64700156
-3.814352 9.5462217 -0.88402313
-3.8423519 10.988631 -1.0688412
-4.2185297 8.3480091 -0.91496193
-3.5452378 8.8727064 -0.99076039
-3.7769589 9.4526377 -1.2356142
-4.2478175 9.4890041 -0.34125116
-3.9953036 11.542959 -0.47308999
-4.4081125 8.7909136 -0.43900126
-3.9525111 8.8293324 -0.48903021
-3.919446 11.323796 -0.67645317
-4.096745 9.1515303 -0.68460369
-3.8773043 11.201411 -0.87857783
-4.3544674 8.684309 -0.7783972
-3.8202865 9.648941 -0.89241958
-3.8436418 11.104161 -1.0788988
-4.1762238 8.3291922 -0.91145706
-3.5180783 8.8856497 -0.99096668
-3.7940207 9.5826006 -1.2510382
-4.2162504 9.5118189 -0.3415136
-3.9969492 11.68611 -0.47835344
-4.3660831 8.7873287 -0.43802014
-3.9290271 8.8638468 -0.49014094
-3.924443 11.47412 -0.6845693
-4.2596669 8.5735273 -0.59693998
-4.0753045 9.1938467 -0.68664724
-3.8833447 11.353312 -0.88936973
-4.3181734 8.6912842 -0.7775985
-3.8441691 11.238778 -1.090602
-4.1438966 8.3408785 -0.91106761
-3.5028999 8.9429398 -0.99591738
-3.7856653 9.6648426 -1.2599553
-4.1885896 9.5436821 -0.34210411
-3.9912002 11.810493 -0.48284283
-4.326787 8.7889318 -0.43730661
-3.9245546 11.61328 -0.69200903
-4.2335048 8.5998268 -0.59768677
-4.1546478 9.4663467 -0.70585704
-3.8793831 11.478951 -0.89809191
-4.2519498 8.6372957 -0.77136874
-3.92152 10.120758 -0.93337357
-3.8424857 11.369773 -1.1019397
-4.1036277 8.3363657 -0.90892577
-3.7928152 9.7885933 -1.0885369
-3.7918217 9.7860289 -1.2739333
-4.1857042 9.619113 -0.34433496
-3.996546 11.949961 -0.48802888
-4.306169 8.816844 -0.43802014
-3.942518 11.788412 -0.70170325
-4.193327 8.5861797 -0.59581977
-4.1185188 9.464715 -0.70476711
-3.8831582 11.610249 -0.9074055
-4.1565533 8.5108833 -0.75890929
-3.9554026 10.304174 -0.94913828
-3.8459141 11.498893 -1.1132772
-4.0713034 8.3366966 -0.90756279
-3.8019679 9.9044638 -1.1000886
-3.7959235 9.8887177 -1.2857424
-4.1788912 9.7004795 -0.346697
-3.9903355 12.078385 -0.4926731
-4.2494578 8.7822084 -0.43552279
-3.9519017 11.962049 -0.71117198
-4.1592207 8.5961008 -0.59544635
-4.098011 9.5127325 -0.70721942
-3.8993948 11.802424 -0.92130184
-4.1140432 8.5027304 -0.75683272
-3.9416566 10.381941 -0.95496434
-3.8468535 11.643396 -1.1258949
-4.0381198 8.3461866 -0.90697861
-3.7952969 9.9964437 -1.1087523
-3.7955945 9.9972277 -1.2980335
-4.1691852 9.7764082 -0.34886223
-3.9900563 12.227823 -0.49816874
-4.2267408 8.817543 -0.43650389
-3.9544897 12.118828 -0.71962625
-4.1242352 8.6040878 -0.59494847
-3.9018986 11.95695 -0.93224162
-4.1000862 8.5537071 -0.76002747
-3.9126842 10.420569 -0.95719194
-3.8424597 11.774806 -1.1372324
-4.0057817 8.3573418 -0.90658921
-3.794296 10.105268 -1.1192726
-3.7973123 10.113301 -1.3112886
-4.1633582 9.8483744 -0.35096183
-3.988461 12.354409 -0.50281292
-4.1810012 8.7928858 -0.43463087
-3.9709969 12.300313 -0.72965866
-4.0877557 8.5971718 -0.59357935
-3.9237571 12.153261 -0.94658148
-4.1562328 8.74119 -0.77552193
-3.8354747 10.313279 -0.94622523
-3.8513422 11.928967 -1.1509472
-3.9743786 8.3590984 -0.9054209
-3.8027494 10.225284 -1.1312368
-3.811198 10.248001 -1.3271947
-4.1573262 9.9354839 -0.35352072
-4.1495972 8.8099585 -0.43472007
-3.9568789 9.45644 -0.51821244
-3.9337718 12.339518 -0.73112404
-4.0570683 8.6139021 -0.59370381
-3.9896989 9.5348759 -0.70572078
-3.9252307 12.311983 -0.9578169
-4.1776834 8.8699894 -0.78558534
-3.8643587 10.508677 -0.9628467
-3.8487315 12.072033 -1.1633821
-3.9369292 8.3592033 -0.90386319
-3.7968295 10.325039 -1.1407256
-3.7996507 10.332711 -1.3363527
-4.1522408 10.026374 -0.35621083
-4.1105213 8.8106232 -0.43400651
-3.9481776 9.5336246 -0.52164567
-3.9292865 12.483372 -0.73878926
-4.0195622 8.6160517 -0.59283257
-3.9157884 9.4554157 -0.69877255
-3.8848696 12.341507 -0.95899957
-4.2884297 9.1923771 -0.81274056
-3.8319445 10.539625 -0.96438891
-3.8505051 12.232337 -1.1774626
-3.8919592 8.3429108 -0.90055305
-3.7983856 10.447323 -1.1526898
-3.8038149 10.462255 -1.3512948
-4.1488051 10.10779 -0.3586385
-4.0769482 8.8108006 -0.43338218
-3.9477873 9.6180477 -0.52558374
-3.9899597 8.6232023 -0.5924592
-3.8875794 9.4713621 -0.69904506
-3.886395 12.483148 -0.96905226
-4.2327404 9.1479063 -0.80762899
-3.8352635 10.652853 -0.97364211
-3.8600113 12.398403 -1.1922746
-3.8690734 8.3623228 -0.9013319
-3.7999127 10.554662 -1.16321
-3.8038824 10.565688 -1.3631039
-4.1373062 10.185896 -0.36086932
-4.0454597 8.8275003 -0.43347138
-4.0639381 8.8682299 -0.60826635
-3.8903837 9.577981 -0.70585704
-3.889394 8.4873438 -0.74804723
-3.8489738 10.815145 -0.98717916
-3.8537416 12.540019 -1.2045264
-3.8500068 8.4017811 -0.90405792
-3.7998884 10.677221 -1.1751742
-3.805073 10.69179 -1.377564
-4.1372175 10.293728 -0.36414996
-4.01473 8.8459072 -0.43364975
-3.9404941 9.8042631 -0.53416681
-3.9266417 8.6522179 -0.5924592
-3.874738 8.5378504 -0.75124192
-3.8350961 10.90249 -0.99386203
-3.8405738 8.4629631 -0.9091205
-3.8023167 10.809303 -1.1881698
-4.1292658 10.367957 -0.36631519
-3.9803598 8.8438997 -0.43293622
-3.9421926 9.8982449 -0.53860974
-3.9133673 8.6954565 -0.59457511
-3.8871157 9.7599545 -0.71730113
-4.1187134 9.1517334 -0.80411482
-3.8224514 10.976583 -0.99951679
-3.8123338 8.4713564 -0.90873104
-3.8089015 10.937674 -1.2009592
-4.1322746 10.487168 -0.36998948
-3.9609318 8.8876295 -0.43436331
-3.9490907 10.022272 -0.54456741
-3.9521608 8.8683653 -0.60540366
-3.8944757 9.883666 -0.72533929
-3.9074223 8.7679749 -0.76913244
-4.352798 12.648613 -1.1503097
-3.7780185 8.4779997 -0.90795219
-3.8037434 11.053138 -1.2120984
-4.1225705 10.559684 -0.37208909
-3.9491429 8.9365797 -0.43614712
-3.944463 10.103474 -0.54830354
-4.0678911 9.2057314 -0.62755865
-3.8924325 9.9702005 -0.73078889
-3.7501264 8.4866219 -0.74341482
-4.3059726 12.641477 -1.1484247
-3.7425158 8.469799 -0.90581036
-3.8062027 11.174253 -1.2240626
-4.1220064 10.673553 -0.37556654
-3.9491987 9.0260429 -0.43980399
-3.9606555 10.255749 -0.55577582
-4.0789289 9.3229895 -0.63452876
-3.8961186 10.088637 -0.73841828
-3.7229915 8.5094423 -0.74421352
-3.8356831 11.3975 -1.0341306
-3.7186277 8.4998722 -0.90756279
-3.8096375 11.320107 -1.2385021
-4.1028304 10.740874 -0.37740371
-3.9407096 9.0972919 -0.44256893
-3.9579649 10.361629 -0.56072366
-4.1105828 9.4899054 -0.64485943
-3.8883083 10.179274 -0.74400413
-3.6854386 8.5083952 -0.74293566
-3.8347454 11.534389 -1.0452687
-3.692987 8.5262299 -0.90892577
-3.8095436 11.458586 -1.2521166
-4.0931187 10.817275 -0.37963453
-3.9404931 9.1757183 -0.44577983
-3.9692209 10.489839 -0.56698424
-3.9106841 10.335137 -0.75449455
-3.6626239 8.5290909 -0.7437343
-3.8308709 11.644808 -1.0541792
-3.7384384 8.7060585 -0.92683947
-3.8114483 11.585769 -1.2646996
-4.0968785 10.948277 -0.38370252
-3.9467015 9.2838764 -0.45032859
-3.9643493 10.594112 -0.57183111
-3.9042466 10.433497 -0.7606253
-3.6360183 8.5534658 -0.74469274
-3.8355784 11.804695 -1.0673735
-3.829535 9.0091372 -0.95760429
-3.8169084 11.747234 -1.2807894
-4.0837779 11.036333 -0.3862614
-3.9351211 9.3516855 -0.45291516
-3.9656978 10.717224 -0.57768774
-3.913759 10.57686 -0.77002585
-3.8257709 11.923029 -1.0767981
-3.8211918 9.0818233 -0.96383518
-3.8121183 11.880481 -1.293785
-4.091042 11.163597 -0.39026377
-3.9464872 9.4617357 -0.45764232
-3.9746213 10.845909 -0.58394831
-3.9456687 9.4602385 -0.63913399
-3.9086611 10.665917 -0.7756117
-3.9637251 9.5035305 -0.82504034
-3.8316998 12.071736 -1.0891358
-3.8179259 9.1544085 -0.97026074
-3.8229237 12.044086 -1.3102874
-4.0916338 11.293158 -0.39426613
-3.946089 9.5592451 -0.46165594
-3.9613786 10.933645 -0.58788639
-3.900306 9.4488049 -0.63739145
-3.9347937 10.86027 -0.78869069
-3.8961575 9.438755 -0.81817162
-3.8297365 12.220702 -1.1013019
-3.7342238 9.0469055 -0.95740962
-3.8198016 12.189 -1.3245206
-4.0852642 11.405935 -0.39767799
-3.9450283 9.6568766 -0.46566957
-3.8837647 9.5073862 -0.64037865
-3.9010177 10.891524 -0.78991681
-3.8585207 9.4455891 -0.81753272
-3.8255544 12.366008 -1.1131254
-3.6634052 8.9683962 -0.94767392
-3.8227234 12.356856 -1.3412293
-4.0921702 11.539287 -0.40187719
-3.9491615 9.7544146 -0.46977237
-3.9616375 11.171205 -0.59919578
-3.8950753 9.6213045 -0.64722431
-3.858752 9.5315819 -0.82392216
-3.8333206 12.530403 -1.1268339
-3.6150455 8.9300451 -0.94241661
-3.831023 12.522892 -1.3579379
-4.086215 11.65796 -0.4054859
-3.9460752 9.8504305 -0.4736968
-3.9636128 11.308176 -0.60575926
-3.905334 11.141907 -0.80612934
-3.8489964 9.6085825 -0.82935321
-3.5704486 8.9136705 -0.93930119
-4.0895419 11.785936 -0.40948826
-3.9608145 9.9779158 -0.47922668
-3.9680095 11.435683 -0.61191887
-3.8869379 9.7923079 -0.65693265
-3.9121737 11.274767 -0.81484866
-3.8607156 9.7262468 -0.83845818
-3.8126628 9.6056767 -1.010956
-4.0923495 11.935097 -0.41414675
-3.9548919 10.070476 -0.48297274
-3.9681804 11.572966 -0.61848235
-3.8875029 9.8993883 -0.66315597
-3.9115963 11.407941 -0.82343173
-3.8225386 9.734458 -1.0230283
-4.0806479 12.044677 -0.41742739
-3.9591968 10.19106 -0.48805666
-3.9744477 11.731211 -0.62615657
-3.8887804 10.010324 -0.6696282
-3.916497 11.56016 -0.83337724
-3.9401948 10.142673 -0.87184316
-3.8264759 9.8504515 -1.0337375
-4.0834579 12.178732 -0.4216266
-3.9608922 10.291087 -0.49224865
-3.9921827 11.906508 -0.63484055
-3.8910108 10.110048 -0.67547816
-3.9290035 11.718079 -0.84386766
-3.9763381 10.331756 -0.8870182
-3.8305421 9.9534502 -1.0432786
-4.0783892 12.313162 -0.42576018
-3.9593999 10.400766 -0.49679744
-3.9887111 12.042414 -0.64130306
-3.887306 10.211922 -0.68132806
-3.9255536 11.851732 -0.85245079
-3.9519193 10.38166 -0.89005315
-3.827316 10.054857 -1.0524302
-3.9550445 10.504963 -0.50107867
-4.0184565 12.282866 -0.6533193
-3.9047084 10.371815 -0.6910364
-3.9397891 12.04241 -0.86512107
-3.8920672 10.338237 -0.88510132
-3.8262029 10.163823 -1.0623605
-3.959023 10.616556 -0.50580579
-3.9829247 12.304931 -0.65382421
-3.9034894 10.468195 -0.69663739
-3.9744458 12.278736 -0.88119733
-3.9104176 10.486774 -0.89676213
-3.8283293 10.267182 -1.0719016
-3.9601772 10.739723 -0.51097894
-3.9700303 12.420285 -0.65917593
-3.909982 10.604168 -0.70472771
-3.9324529 12.302724 -0.8818785
-3.8712656 10.499166 -0.89660239
-3.8230362 10.368921 -1.0810531
-3.9659564 10.878057 -0.51686555
-3.9025395 10.704696 -0.71045315
-3.9149599 12.404585 -0.88814551
-3.8696313 10.614428 -0.9052282
-3.8286376 10.502551 -1.0935148
-3.9541521 10.95248 -0.51980889
-3.915659 10.846452 -0.71904129
-3.8829756 10.755919 -0.91624999
-3.8327963 10.617501 -1.1042241
-3.8986895 10.92465 -0.72327316
-3.8710001 10.84706 -0.92279923
-3.8339951 10.74396 -1.115907
-3.9648221 11.239307 -0.53202814
-3.8590713 10.940139 -0.92950815
-3.8336556 10.868692 -1.127395
-3.9683599 11.362999 -0.53729045
-3.8972874 11.160116 -0.73708892
-3.8375523 10.989677 -1.1386884
-3.9742701 11.515342 -0.54380143
-3.9084527 11.325278 -0.74704623
-3.8729658 11.22245 -0.95123237
-3.8329601 11.107157 -1.1493977
-3.9687977 11.637622 -0.54888535
-3.8952651 11.422657 -0.75252271
-3.8671978 11.34035 -0.96001786
-3.83077 11.23417 -1.1610806
-3.983335 11.801479 -0.55602068
-3.9129808 11.593707 -0.7629779
-3.8812792 11.49978 -0.97247732
-3.8406496 11.380054 -1.1749053
-3.9868236 11.95626 -0.56262088
-3.914659 11.740525 -0.77169055
-3.9166684 11.746552 -0.99212497
-3.8360593 11.505465 -1.1863935
-3.9855542 12.078774 -0.56779397
-3.9227879 11.88925 -0.78065211
-4.1433516 12.557738 -1.0595338
-3.8466687 11.65923 -1.200997
-4.0006909 12.275669 -0.57635641
-3.934231 12.072459 -0.79172957
-3.9966099 12.263874 -1.0334967
-3.8470798 11.805729 -1.214627
-3.9721997 12.341602 -0.57876456
-3.9578369 12.297713 -0.80554533
-3.9626276 12.312599 -1.0363721
-3.8421996 11.939122 -1.226894
-3.9222109 12.319597 -0.80616766
-3.9051783 12.266098 -1.0314202
-3.8553939 12.110457 -1.24325
-3.9117489 12.444337 -0.81338668
-3.8727489 12.320268 -1.0347747
-3.8485835 12.244138 -1.255517
-3.8766079 12.492414 -1.0480329
-3.8567715 12.429258 -1.2730412
