# .PCD v0.7 - Point Cloud Data file format
VERSION 0.7
FIELDS x y z
SIZE 4 4 4
TYPE F F F
COUNT 1 1 1
WIDTH 770
HEIGHT 1
VIEWPOINT 0 0 0 1 0 0 0
POINTS 770
DATA ascii
-5.5801344 10.057305 -1.0560408
-5.5144391 10.025338 -1.0505548
-5.4275622 9.9412251 -1.0399487
-5.3702345 9.9225168 -1.0359256
-5.3588271 9.9761839 -1.0397658
-5.3712378 10.087807 -0.84708917
-5.2585769 9.8762169 -1.0273311
-5.347261 10.132121 -0.84915882
-5.2065406 9.8654804 -1.0242224
-5.156117 9.844739 -1.0203822
-5.3438535 10.29526 -0.65481031
-5.2166042 10.049678 -0.83925396
-5.1053185 9.835288 -1.0174564
-5.3088241 10.320105 -0.65514845
-5.166049 10.042126 -0.83703643
-5.0628586 9.8415365 -1.0161763
-5.1254072 10.040541 -0.83555812
-5.0174274 9.8290119 -1.0132505
-5.073267 10.029003 -0.83304495
-4.9678836 9.8206778 -1.0105076
-5.0275369 10.029699 -0.83156657
-5.6357336 10.112949 -0.99557561
-4.9443502 9.8637466 -1.0130676
-5.3475971 9.5959082 -1.3334607
-4.9888973 10.031157 -0.8303839
-5.5749989 10.078295 -0.99043494
-4.8982611 9.8489161 -1.009959
-5.3654432 9.6994677 -1.1493894
-5.3260736 9.6282969 -1.3356297
-5.193224 10.539161 -0.455055
-5.0370479 10.222216 -0.64331251
-5.0940399 10.33742 -0.85418522
-5.5121531 10.051487 -0.98580831
-4.8586087 9.8596563 -1.0092275
-5.305943 9.6754608 -1.1442324
-5.1764808 10.603023 -0.45699009
-5.1870198 10.624609 -0.66743529
-5.3851409 11.029934 -0.90977079
-5.4600477 10.043612 -0.98306668
-4.8154483 9.86308 -1.0077646
-5.2552428 9.6668787 -1.1409318
-5.1500936 9.4734592 -1.3088785
-5.1466293 10.626427 -0.45729971
-5.3355289 11.016455 -0.6909945
-5.340899 11.027052 -0.90814465
-5.3877807 9.9853086 -0.97569835
-4.7714167 9.8512735 -1.0050216
-5.2087889 9.6535778 -1.1374252
-5.1108785 9.4721184 -1.3064685
-5.0920854 10.612785 -0.45590645
-5.3296676 11.107948 -0.69550341
-5.3558455 10.013774 -0.97655517
-4.7206306 9.8381701 -1.001913
-5.1630511 9.6533089 -1.135156
-5.0461626 9.4347639 -1.2987565
-5.0514374 10.627768 -0.45575163
-5.3292074 11.212172 -0.70080143
-4.909719 10.32914 -0.84768051
-5.3237739 10.04214 -0.97741193
-4.6640205 9.8122358 -0.9975242
-5.1164536 9.6510754 -1.1326807
-5.0180583 9.4654741 -1.3004435
-5.0026841 10.611047 -0.45435837
-5.2140756 11.058923 -0.90622282
-4.6433635 9.8484564 -0.99971855
-5.0694361 9.6354122 -1.1289676
-4.9827504 9.4706497 -1.2989975
-4.9417729 10.582231 -0.45234588
-5.1659122 11.061695 -0.90489227
-4.5903811 9.829319 -0.99606127
-5.0212092 9.6292334 -1.1260798
-4.9470873 9.4870882 -1.2987565
-4.8757467 10.526979 -0.44932714
-5.1177225 11.048912 -0.90252692
-4.5552936 9.8346548 -0.99514693
-4.9772196 9.6184578 -1.1229856
-4.892622 9.4549732 -1.2922494
-4.8271313 10.522982 -0.44839829
-5.0755286 11.06397 -0.90223128
-4.5250301 9.8639565 -0.996427
-4.9310393 9.6153946 -1.1205102
-4.8416271 9.4410419 -1.2879114
-4.7678652 10.495114 -0.44646323
-5.0011182 11.008046 -0.89617008
-5.1756525 10.18414 -0.98238122
-4.4707232 9.8405838 -0.99240398
-4.8831463 9.6085749 -1.1176223
-4.8015943 9.4481049 -1.2864654
-4.7324076 10.504575 -0.44623101
-4.6349254 10.288193 -0.63699996
-4.9673305 11.025521 -0.8963179
-5.1373525 10.187895 -0.98118174
-4.4479671 9.8727388 -0.99423265
-4.8484573 9.6149864 -1.1165909
-4.7441759 9.408186 -1.2789943
-4.6841044 10.499949 -0.44530216
-4.5939322 10.297817 -0.63654912
-4.9415135 11.076441 -0.89897895
-5.0438652 10.094357 -0.97038633
-4.4085059 9.8816996 -0.99350119
-4.8007355 9.6077785 -1.113703
-4.6990123 9.4041986 -1.2761023
-4.6278234 10.476828 -0.44359928
-4.5456691 10.29084 -0.63508368
-4.4342475 10.038121 -0.81338298
-4.9431763 9.9842014 -0.95804876
-4.356163 9.8613558 -0.9898439
-4.7610755 9.616396 -1.1126716
-4.6583462 9.4089031 -1.2744154
-4.5876708 10.474839 -0.44290265
-4.4988976 10.272146 -0.63305467
-4.390687 10.024598 -0.81116551
-5.0382919 10.257231 -0.98272395
-4.325161 9.8749924 -0.9898439
-4.7089148 9.5866671 -1.1075146
-4.6243873 9.4145813 -1.2732104
-4.5420923 10.475081 -0.44220603
-4.4270597 10.20979 -0.62820756
-4.348361 10.027814 -0.81013066
-5.3197989 10.931404 -1.0454401
-4.285769 9.8834696 -0.98911244
-4.6711349 9.5984955 -1.1068958
-4.5811625 9.4136143 -1.2708004
-4.506794 10.483791 -0.44197381
-4.3910198 10.214476 -0.62764394
-4.3128977 10.032263 -0.8093915
-5.2932277 10.964213 -1.0469823
-4.2444725 9.8730984 -0.98673522
-4.6400924 9.611331 -1.1066895
-4.5481133 9.4208088 -1.2698363
-4.4628606 10.487367 -0.441432
-4.3496432 10.221313 -0.62708032
-5.3969979 10.117876 -0.78296858
-4.3635731 10.253551 -0.82594889
-4.7268457 9.8833885 -0.94211268
-4.1973386 9.8629332 -0.98417509
-4.5928178 9.6031485 -1.1038016
-4.5101271 9.4302502 -1.2688724
-4.4112039 10.472342 -0.44011614
-4.302074 10.213264 -0.62561494
-5.3664064 10.149937 -0.78392231
-4.7946734 10.120341 -0.96301806
-4.1557488 9.8654032 -0.98289508
-4.547369 9.5983438 -1.1013262
-4.4763832 9.4485121 -1.2691133
-4.3775125 10.484305 -0.44003871
-4.2638121 10.211988 -0.62471312
-5.3391285 10.17558 -0.78460348
-4.2690864 10.224119 -0.82121819
-4.6891246 9.9784546 -0.9481101
-4.1285725 9.887599 -0.98380935
-4.512116 9.6017799 -1.1000886
-4.4390783 9.4463558 -1.2669443
-4.3314238 10.481809 -0.43926468
-5.3645015 10.315659 -0.58778542
-4.2301674 10.236774 -0.62527674
-5.3110032 10.212784 -0.78596586
-4.2163491 10.20283 -0.8182615
-4.6415892 9.9720888 -0.9458825
-4.0877409 9.8916206 -0.98271221
-4.4743748 9.6128426 -1.0994697
-4.398561 9.4499626 -1.2652574
-4.2907076 10.492064 -0.4390325
-5.3257418 10.333475 -0.58768445
-4.1759911 10.211549 -0.62279683
-4.1698656 10.196062 -0.81648749
-4.6050086 9.9890347 -0.9458825
-4.0476894 9.8973198 -0.98179787
-4.4357805 9.6219511 -1.0986446
-4.3522587 9.4407778 -1.2618833
-4.2622285 10.516605 -0.4394969
-5.2777905 10.319923 -0.58596784
-4.1521401 10.244974 -0.62403679
-5.1477847 10.065717 -0.7719332
-4.217977 10.406898 -0.83230579
-4.5595188 9.9726448 -0.94296944
-4.0180721 9.9136782 -0.98216361
-4.3997402 9.6231747 -1.0972006
-4.3167992 9.4417648 -1.2601963
-4.2102652 10.498769 -0.43810365
-5.2417364 10.342761 -0.58616978
-4.1093597 10.24715 -0.62324774
-5.0973272 10.057819 -0.76988959
-4.3193803 10.770315 -0.86009854
-4.513896 9.9693213 -0.94108456
-3.9735551 9.9080048 -0.98015207
-4.36444 9.6392355 -1.0972006
-4.2813454 9.4557142 -1.2599553
-4.1783905 10.530848 -0.43880028
-5.1733146 10.301214 -0.58273661
-4.0658832 10.247294 -0.62234592
-5.0443106 10.044338 -0.76743728
-4.2887034 10.808321 -0.86187255
-5.6259065 10.07463 -0.92455631
-4.4797716 9.9912529 -0.94159859
-3.9460285 9.9447174 -0.98234648
-4.3176866 9.6297541 -1.0943127
-4.2466598 9.471343 -1.2599553
-4.1408987 10.532763 -0.43833584
-5.1338 10.303113 -0.58192879
-4.1717548 10.611248 -0.64365065
-5.0207396 10.076209 -0.76866347
-4.2291842 10.756773 -0.85669839
-5.5719981 10.05215 -0.92088234
-4.4337897 9.9725027 -0.93851423
-3.8921759 9.8996058 -0.97667766
-5.4193435 9.7771559 -1.0935148
-4.2833719 9.634182 -1.0932813
-4.2080112 9.4646807 -1.2573043
-4.1051641 10.55532 -0.43864545
-5.0836234 10.296785 -0.58051509
-4.1328344 10.626467 -0.64365065
-5.1330581 10.396914 -0.79168797
-3.9200547 10.07884 -0.80155629
-5.5207157 10.046297 -0.9184863
-4.3923917 9.9777441 -0.93748605
-3.8710265 9.9527845 -0.9805178
-5.383472 9.7969532 -1.0935148
-4.2568488 9.6698446 -1.0955504
-4.1828923 9.5018463 -1.2601963
-4.0777316 10.583083 -0.43926468
-5.0354347 10.280416 -0.5786975
-3.96015 10.27792 -0.6217823
-5.3882585 11.000747 -0.83637452
-3.9005632 10.122745 -0.80406946
-5.484354 10.05484 -0.91768765
-4.3522558 9.971405 -0.93560117
-3.8583586 10.013216 -0.98527229
-5.348855 9.8068275 -1.092736
-4.2057586 9.635766 -1.0901871
-4.146667 9.5003834 -1.2582682
-4.0374918 10.594223 -0.43910989
-4.9881287 10.279036 -0.57758677
-3.9260085 10.301695 -0.62234592
-5.3618407 11.049145 -0.83855432
-4.1148887 10.796743 -0.8564027
-5.4066916 9.9994659 -0.91081893
-4.3148894 9.9854612 -0.93542981
-3.823051 10.031012 -0.98563802
-5.2996211 9.8018522 -1.0900099
-4.1719913 9.6547689 -1.0905997
-4.1063056 9.5027599 -1.2565813
-4.0155516 10.653831 -0.44096756
-5.3320875 11.091146 -0.62211752
-4.0966859 10.869092 -0.65571207
-4.0802135 10.824817 -0.85743755
-5.3728304 10.024487 -0.91129816
-4.274343 9.9920483 -0.93457305
-3.7855573 10.043094 -0.98545516
-5.2354517 9.7685785 -1.0841686
-4.1350121 9.666337 -1.0901871
-4.0480227 9.4629841 -1.2493513
-4.007225 10.733797 -0.44375411
-5.3350487 11.187171 -0.62656045
-3.8871293 10.411552 -0.82373136
-4.230484 9.9760752 -0.93183136
-3.754684 10.056802 -0.98563802
-5.1972589 9.7709188 -1.0826108
-4.0945277 9.6554708 -1.0875055
-4.029901 9.5030718 -1.2529663
-3.9955411 10.823405 -0.44685024
-5.3735318 10.191809 -0.71841896
-5.2373195 11.086645 -0.83719194
-3.7501636 10.158164 -0.80259115
-5.2449656 9.9479609 -0.90107501
-4.1908064 9.9841642 -0.93114591
-3.74263 10.137757 -0.99222112
-5.1512008 9.7705336 -1.080469
-4.0614209 9.6759157 -1.0881243
-3.9973488 9.5232706 -1.2536893
-3.996273 10.948741 -0.45141703
-4.7889853 10.234546 -0.57122523
-5.1848106 11.080464 -0.83528459
-3.6903381 10.110011 -0.79771256
-5.196466 9.9441481 -0.89899844
-4.1473045 9.9828959 -0.92960376
-3.837249 10.512487 -1.0275139
-5.0941525 9.7487726 -1.0759906
-4.0221133 9.681551 -1.087093
-3.9647024 9.5433588 -1.2544123
-3.9937854 11.049578 -0.455055
-4.7719445 10.282153 -0.57304281
-5.2874937 10.196253 -0.7161786
-5.139895 11.074979 -0.83364969
-3.6633046 10.134686 -0.79874742
-5.1523509 9.935647 -0.89676213
-4.1144042 9.9921904 -0.92926103
-3.8421175 10.629379 -1.0377543
-5.0607519 9.7594271 -1.0754064
-3.9871335 9.6831026 -1.0858552
-3.9415052 9.5722895 -1.2565813
-3.9996581 11.193998 -0.46039584
-5.3419938 10.393949 -0.5216819
-4.7192106 10.266906 -0.57122523
-3.9459038 11.043554 -0.66202462
-5.2774596 10.268826 -0.71991259
-5.0934348 11.081052 -0.83269602
-3.9549899 11.068374 -0.87118614
-5.1104326 9.9438257 -0.89580369
-4.0732417 9.9961319 -0.92823291
-3.8353007 10.733414 -1.0465318
-5.0040221 9.7371902 -1.070928
-3.9553699 9.7068624 -1.0868866
-3.9093914 9.5940266 -1.2575452
-3.9985352 11.321648 -0.46504006
-5.3038621 10.413458 -0.5216819
-4.6947899 10.313221 -0.57284087
-3.9313347 11.131373 -0.66642082
-5.041213 11.074222 -0.83078867
-3.8971252 11.033897 -0.86734241
-5.0576668 9.9305134 -0.89292842
-4.0276346 9.9888163 -0.92617661
-3.7853227 10.717351 -1.0436059
-4.9610729 9.7412758 -1.0693703
-3.9145584 9.7083788 -1.0854427
-3.8831108 9.6303873 -1.2604373
-3.9979069 11.434139 -0.46914244
-5.2612081 10.410454 -0.52070081
-4.6672978 10.338842 -0.57344675
-3.9246848 11.224721 -0.67126793
-3.8749504 11.081859 -0.87015128
-5.0246458 9.9427948 -0.89260894
-3.9962342 10.001421 -0.92617661
-3.7003591 10.58255 -1.0293425
-4.9232635 9.7426014 -1.0678126
-3.8899443 9.7354078 -1.087093
-3.871254 9.6886311 -1.2664623
-4.8832326 10.923761 -0.39275706
-4.0036187 11.586606 -0.4747929
-5.2140698 10.411801 -0.51980889
-4.6228514 10.341291 -0.57263893
-3.882513 11.235487 -0.881091
-4.9721022 9.9290571 -0.88973373
-3.95662 10.008588 -0.92549121
-3.6225185 10.483097 -1.0183707
-4.8777184 9.7410021 -1.0656707
-3.8556988 9.7532997 -1.0875055
-3.8379071 9.7082939 -1.2671853
-4.8811889 11.027496 -0.39584085
-4.0011621 11.718462 -0.47959191
-5.1687689 10.416524 -0.51909536
-4.5695562 10.323462 -0.57072037
-3.9158537 11.468615 -0.68411839
-5.0623918 10.202592 -0.91257608
-3.9003143 9.9729166 -0.92086458
-3.5821412 10.490649 -1.0178221
-4.8393292 9.7534657 -1.0650865
-3.8351414 9.8062725 -1.0918374
-3.8153152 9.755578 -1.2715234
-4.8280439 11.000677 -0.39433175
-4.0007973 11.838894 -0.4840039
-5.1051321 10.369971 -0.51597363
-3.9245546 11.61328 -0.69200903
-5.4263268 11.022894 -0.76608956
-4.4329076 10.10036 -0.75313216
-3.9457955 11.675464 -0.91346669
-5.3922009 10.953572 -0.97822785
-3.8668044 9.9795465 -0.92035055
-3.8341961 11.345245 -1.0995624
-4.801631 9.7543335 -1.0635288
-3.8258774 9.8739214 -1.0980258
-3.8147764 9.8452711 -1.2816454
-4.7614036 10.957799 -0.39216653
-4.0054774 11.997547 -0.48988655
-5.059207 10.372451 -0.51517093
-4.4530115 10.248072 -0.56486368
-3.9268599 11.762064 -0.70001239
-5.1540027 10.567271 -0.73310602
-4.3672309 10.050657 -0.74822754
-3.9680364 11.884709 -0.92869359
-5.3415308 10.95176 -0.97631103
-3.8387589 10.01598 -0.92240679
-3.8436773 11.512239 -1.1143744
-4.7562494 9.7521877 -1.0613869
-3.8110204 9.9436045 -1.1042142
-3.7957191 9.9036808 -1.2874295
-4.7164702 10.964159 -0.39177287
-3.9996588 12.127922 -0.49460816
-5.0098548 10.367537 -0.51401144
-4.4091063 10.249644 -0.56405592
-3.9337552 11.928086 -0.70903027
-5.3584065 11.089334 -0.76795655
-4.3216906 10.046433 -0.7467289
-3.9350703 11.931374 -0.93120676
-3.8182678 10.072838 -0.92634797
-3.8388851 11.639734 -1.1253463
-4.7187419 9.7659702 -1.0609975
-3.8069854 10.043074 -1.113703
-3.7988043 10.021492 -1.3009255
-4.0074153 12.281021 -0.50033605
-4.9608502 10.348992 -0.51231676
-4.3651309 10.235886 -0.56254125
-3.9470565 12.096047 -0.71827358
-5.3459749 11.152914 -0.77119267
-4.279932 10.0361 -0.7449578
-3.91118 11.985393 -0.93445909
-4.9049368 10.232808 -0.90922159
-3.7697935 10.040011 -0.92223543
-3.8523455 11.805099 -1.1401583
-4.6665292 9.7358723 -1.0561297
-3.804086 10.131342 -1.1221604
-3.7945206 10.105866 -1.3103245
-4.0016074 12.417365 -0.50528985
-4.9228859 10.367105 -0.51231676
-4.3252549 10.246295 -0.56223834
-3.9418943 12.23207 -0.72548789
-4.2438951 10.053558 -0.745094
-3.8916974 12.075582 -0.94037247
-5.2222776 10.998091 -0.97551233
-3.7357442 10.061234 -0.92292088
-3.8426521 11.923399 -1.1502157
-4.6350832 9.7619009 -1.0571033
-3.8015497 10.238463 -1.1324744
-3.8016851 10.238828 -1.3257487
-4.0123525 12.58601 -0.51163691
-4.8843327 10.369867 -0.51169246
-4.2968988 10.269046 -0.56274319
-3.9640968 12.434642 -0.7367602
-5.2299609 11.104169 -0.76534277
-4.2084389 10.057638 -0.74441284
-3.9100847 12.264476 -0.95412105
-4.7018051 9.9827967 -0.88414294
-3.7061808 10.07853 -0.92343491
-3.8535712 12.087214 -1.164845
-4.5882783 9.7421989 -1.0534037
-3.8119342 10.366116 -1.1452638
-3.8112996 10.364389 -1.3404497
-4.0159979 12.758855 -0.5180614
-4.8446031 10.384078 -0.51151407
-4.24089 10.240435 -0.56031978
-3.9328835 12.4948 -0.73946559
-4.7233863 10.12472 -0.69663739
-4.1623864 10.050873 -0.74277794
-3.9082255 12.415704 -0.96476507
-4.6921558 10.057776 -0.88925451
-3.6637692 10.077065 -0.92206407
-3.8505051 12.232337 -1.1774626
-4.5449667 9.7427158 -1.0516512
-3.7977059 10.445453 -1.1524836
-3.8044932 10.464122 -1.3515358
-4.0124993 12.912807 -0.52371186
-4.7872348 10.360049 -0.50946265
-4.2109032 10.274392 -0.56132954
-4.8696098 10.5388 -0.72389549
-4.12779 10.0716 -0.74318665
-3.881042 12.48899 -0.96934795
-4.6552606 10.074906 -0.88925451
-3.6322024 10.105428 -0.92343491
-3.8517458 12.394716 -1.191726
-4.5100622 9.761116 -1.051846
-3.8038061 10.582859 -1.166098
-3.8064084 10.590099 -1.3659959
-4.0159407 13.068625 -0.52951711
-4.7380161 10.33871 -0.50767881
-4.1688328 10.263513 -0.56001681
-3.9433508 12.832404 -0.7578395
-5.0759726 11.076668 -0.75974178
-4.2005033 10.341484 -0.76212394
-4.596179 10.029673 -0.88398319
-3.6057823 10.131806 -0.92480576
-3.8636875 12.572383 -1.2076352
-4.4652781 9.7444735 -1.0485358
-3.7992213 10.675347 -1.174968
-3.8010788 10.680567 -1.3761179
-4.0103574 13.222867 -0.53516757
-4.6984396 10.352367 -0.50750041
-4.1282077 10.27131 -0.55961293
-3.9403367 12.991997 -0.76640648
-5.0452394 11.11701 -0.76123536
-4.2109389 10.477152 -0.77097952
-3.8874116 12.816688 -0.9927057
-4.5536203 10.033744 -0.88286501
-3.7200432 10.575415 -0.96404618
-3.8603587 12.727494 -1.2211671
-4.4311781 9.7643995 -1.0489253
-3.7996762 10.801797 -1.1873448
-4.0122919 13.405961 -0.54197907
-4.6539121 10.354939 -0.50678688
-4.0838904 10.269667 -0.55870414
-3.9419305 13.170868 -0.7761007
-4.282371 10.768781 -0.7912792
-3.8918822 13.002819 -1.0060108
-4.5037384 10.021272 -0.88030922
-3.6694794 10.555099 -0.96096176
-3.8587995 12.892289 -1.2356133
-4.3774099 9.7406321 -1.0446415
-3.8025208 10.937787 -1.200753
-4.0211864 13.590974 -0.54894543
-4.611598 10.34761 -0.50571662
-4.1387467 10.503593 -0.57072037
-3.963418 13.395726 -0.78861296
-4.1987772 10.655943 -0.78201491
-3.9036431 13.192849 -1.0197593
-4.4633069 10.01534 -0.87855214
-3.6797452 10.692817 -0.97244263
-3.86292 13.055221 -1.2500596
-4.3524585 9.7670631 -1.0460045
-3.805038 11.0569 -1.2125108
-4.3333836 11.116845 -0.39164165
-4.0178242 13.764853 -0.55536991
-4.5688014 10.353475 -0.50518143
-4.0262256 10.328864 -0.56042075
-3.9674466 13.592261 -0.79932171
-3.9473603 10.126543 -0.74209672
-3.9161823 13.415763 -1.0358733
-4.430593 10.040751 -0.87935084
-3.8214333 11.238242 -1.0207648
-3.8563423 13.210767 -1.2635916
-4.313417 9.7756653 -1.0452257
-3.8105984 11.206379 -1.227363
-4.3069921 11.169955 -0.3929539
-4.0054994 13.912 -0.56071073
-4.5332232 10.375643 -0.50544906
-3.981874 10.326778 -0.55951196
-3.995501 13.877273 -0.81521571
-4.4216752 10.120814 -0.68867153
-3.915961 10.155837 -0.74318665
-3.9365213 13.671525 -1.0545003
-4.3754048 10.014905 -0.87567687
-3.8685143 13.435338 -1.2837067
-4.2703867 9.7749929 -1.0434732
-3.8068776 11.33153 -1.2395334
-4.2576137 11.146084 -0.39164165
-4.4950457 10.377 -0.5048247
-3.9579649 10.361629 -0.56072366
-3.9557097 13.9032 -0.81600475
-4.3795443 10.110844 -0.6870535
-4.1417851 10.842855 -0.79250538
-3.9525032 13.891009 -1.0704664
-4.3462977 10.034089 -0.87615609
-3.8636632 11.62137 -1.053151
-3.8715265 13.606419 -1.2988844
-4.2341189 9.7755747 -1.0421102
-3.8139367 11.4718 -1.2535605
-4.2386322 11.219582 -0.39367563
-4.4530444 10.384224 -0.50437874
-4.3385234 10.117655 -0.68643117
-4.1259923 10.921427 -0.7971375
-3.9064131 13.922687 -1.0717969
-4.2945638 10.015139 -0.87312108
-3.8415592 11.697928 -1.0588058
-3.8754337 13.812274 -1.3171709
-4.1935544 9.7800512 -1.040942
-3.8146918 11.616114 -1.2677938
-4.2194767 11.275902 -0.39518473
-4.4063292 10.365065 -0.50277328
-4.2973452 10.10919 -0.6849376
-4.0797734 10.902566 -0.79482144
-3.909539 14.104031 -1.0848063
-4.2615194 10.024912 -0.8728016
-3.8368099 11.808485 -1.0677162
-3.8814983 14.002872 -1.3341771
-4.1519074 9.7675314 -1.038216
-3.8181379 11.751019 -1.281202
-4.2211294 11.407522 -0.39925271
-4.3768339 10.401402 -0.50375438
-4.2649093 10.135912 -0.68568438
-4.2185621 10.025764 -0.87152374
-3.8434265 11.978052 -1.0817674
-4.1160798 9.7826834 -1.038216
-3.8212352 11.908894 -1.2968792
-4.2129445 11.514901 -0.40246773
-4.3217816 10.376797 -0.50179219
-4.21315 10.116465 -0.68331951
-4.1764221 10.028275 -0.87040555
-3.8332026 12.098435 -1.0913633
-4.0702486 9.7738161 -1.0356847
-3.8184192 12.051776 -1.3109062
-4.2149076 11.652448 -0.40673253
-4.2829585 10.39072 -0.50170296
-3.9862278 11.020244 -0.59243035
-4.1661544 10.107846 -0.68170142
-4.0098743 11.085617 -0.80490315
-4.1312819 10.02324 -0.86864847
-3.8269067 12.234117 -1.1023301
-4.0381913 9.7978706 -1.0366583
-3.8116372 12.185303 -1.3239018
-4.2153511 11.769134 -0.41034123
-4.2412267 10.381928 -0.5006327
-3.9664047 11.074083 -0.59465182
-4.1343789 10.120885 -0.68170142
-3.9386957 10.99672 -0.79754627
-4.1035423 10.045397 -0.86944711
-3.8355658 12.39837 -1.1160386
-3.995347 9.7810249 -1.0335429
-3.8238993 12.360658 -1.3416418
-4.1982045 11.857993 -0.41290012
-4.1979046 10.384438 -0.50000834
-3.9551213 11.171394 -0.59909481
-4.0950122 10.130419 -0.68132806
-3.9056895 11.031774 -0.79904485
-4.0547423 10.030797 -0.86689132
-3.8331604 12.553372 -1.1287189
-3.9661844 9.812212 -1.0352952
-3.8233035 12.521091 -1.3575253
-4.2006025 11.984307 -0.41683689
-4.1637745 10.393865 -0.49982995
-4.0609393 10.137674 -0.68095464
-3.9145741 11.168269 -0.80803668
-4.030623 10.061993 -0.86848873
-3.841507 12.723683 -1.1429414
-3.9375594 9.8301668 -1.0358794
-3.8333969 12.696821 -1.3752654
-4.1808581 12.069509 -0.41926455
-4.1131358 10.37748 -0.4983137
-3.9607136 11.433985 -0.61171693
-4.0259624 10.158057 -0.68132806
-3.9782913 10.037777 -0.86513424
-3.8414998 12.894273 -1.1569926
-3.8912365 9.8186264 -1.0331534
-4.1786714 12.20768 -0.42352936
-4.0706964 10.381325 -0.49777853
-3.9627671 11.576931 -0.61858332
-4.1205921 10.50911 -0.70385641
-3.9107921 11.425091 -0.82452166
-3.9189141 9.9947538 -0.8601824
-3.8324258 13.038266 -1.1686447
-3.8646688 9.8569136 -1.0356847
-4.1807079 12.340019 -0.42766297
-4.035892 10.388474 -0.49751097
-3.9648337 11.702833 -0.6246419
-3.9545572 10.179644 -0.68095464
-3.908814 11.537481 -0.83174235
-3.8846078 9.9995832 -0.85954344
-3.84148 13.222459 -1.1840667
-3.8553059 9.9246683 -1.0415261
-4.1811328 12.49174 -0.43238705
-3.9863217 10.373356 -0.49608392
-3.9719999 11.866925 -0.63261908
-3.9064806 10.166121 -0.67908764
-3.9133673 11.691751 -0.84182411
-3.8758202 10.08633 -0.8657732
-3.8380022 13.393525 -1.1981179
-3.8431785 10.001906 -1.0481464
-4.1754813 12.628445 -0.43658626
-3.9681509 10.440191 -0.49858126
-3.9824052 12.0445 -0.64130306
-4.0202451 10.577807 -0.70559895
-3.9168417 11.846209 -0.85190582
-3.8189943 10.048288 -0.86130059
-3.8463271 13.610763 -1.2162815
-3.8361936 10.094072 -1.0563244
-4.1817818 12.782088 -0.4414416
-3.9508204 10.493744 -0.50054348
-3.9886441 12.191741 -0.64847243
-4.1543789 11.034998 -0.73522192
-3.9286213 12.008274 -0.86266875
-3.7817886 10.045311 -0.86002266
-3.8469536 13.778237 -1.2301613
-3.8367221 10.191767 -1.0652813
-4.1736236 12.917161 -0.44557521
-3.9562521 10.626118 -0.50616258
-4.0022745 12.386844 -0.6580652
-4.1187811 11.063246 -0.73609316
-3.9299803 12.163096 -0.87275046
-3.7498143 10.072183 -0.86114085
-3.8450799 13.968994 -1.245926
-3.8305919 10.289704 -1.0740434
-4.1608853 13.040919 -0.44931513
-3.9552436 10.74367 -0.51106811
-3.9756696 12.460421 -0.66119546
-3.9466324 12.369413 -0.88651067
-3.709429 10.076504 -0.86034214
-3.8334215 10.413885 -1.0855315
-4.1511798 13.15305 -0.45272696
-3.9666407 10.879935 -0.51695478
-3.921566 12.425516 -0.88964415
-3.6763887 10.084362 -0.86002266
-3.8300011 10.506291 -1.0939043
-4.1624069 13.35902 -0.45928824
-3.9707739 11.016577 -0.52275223
-3.9864275 12.794225 -0.67745274
-4.0013494 11.102014 -0.73584425
-3.9306059 12.615068 -0.90217823
-3.6434588 10.109022 -0.86098111
-3.8346603 10.640105 -1.1063659
-4.1586633 13.521303 -0.46434042
-3.9685936 11.138337 -0.52783614
-3.9776754 12.932847 -0.68401623
-3.9217758 11.007545 -0.72862524
-3.9212978 12.749543 -0.9107613
-3.7836912 10.619972 -0.90331131
-3.8343811 10.762842 -1.1176593
-4.1376843 13.605061 -0.46676809
-3.9708042 11.256266 -0.53283083
-3.9910774 13.123005 -0.69340706
-3.9011197 11.059342 -0.73123902
-3.9247684 12.904976 -0.92097926
-3.8391757 10.883737 -0.92471606
-3.8363042 10.876201 -1.1281739
-4.1067538 13.683315 -0.46893328
-3.9969261 13.31738 -0.70289886
-3.9019573 11.192313 -0.73908037
-3.9296393 13.093187 -0.93337703
-3.8557 11.059628 -0.93845344
-3.8344185 10.999203 -1.1394674
-4.0887642 13.780469 -0.47182024
-3.9599297 11.47379 -0.54183924
-4.0124545 13.523279 -0.71309751
-3.9509203 13.31589 -0.94836342
-3.8664622 11.203605 -0.94963497
-3.6154366 10.476817 -1.0841686
-3.9629934 11.620602 -0.54808265
-4.0403013 13.802442 -0.7270323
-3.899775 11.435882 -0.75339401
-3.9587057 13.523696 -0.96212357
-3.562237 10.446667 -1.0796901
-3.9631197 11.761909 -0.55405849
-4.0068631 13.876648 -0.73016256
-3.8935256 11.55603 -0.76036412
-4.0032144 13.864011 -0.98528433
-3.9624636 11.760639 -0.99436128
-3.5728588 10.604899 -1.0946831
-3.9691269 11.903189 -0.5601235
-3.9879131 13.975602 -0.73470652
-3.9013999 11.700759 -0.7690767
-3.9607348 13.880356 -0.98555678
-3.957027 11.867592 -1.0023481
-3.8461328 11.535678 -1.1895089
-3.9817295 12.08845 -0.56815076
-3.9153132 11.88751 -0.78040314
-3.9384797 13.99658 -0.99277747
-3.9378264 11.955864 -1.0085778
-3.8449221 11.674477 -1.20236
-3.9763377 12.222663 -0.57376981
-3.9130895 12.028961 -0.78874236
-3.8989134 11.985383 -1.0098557
-3.8445921 11.819099 -1.2157953
-3.9875033 12.389151 -0.58099437
-3.9303181 12.212208 -0.79994434
-3.8905575 12.088665 -1.0175231
-3.8543952 11.977018 -1.2307884
-3.9741418 12.504602 -0.58572149
-3.9399424 12.397744 -0.81114632
-3.893321 12.251041 -1.0299826
-3.8544776 12.129547 -1.2450024
-3.9141963 12.474952 -0.81525367
-3.882412 12.373652 -1.0390875
-3.8433635 12.249949 -1.2559065
-3.9890149 12.853855 -0.60079491
-3.8801532 12.503839 -1.0489912
-3.8614907 12.444467 -1.274599
-3.9834254 13.004027 -0.60712749
-3.909868 12.764692 -0.83243001
-3.8589904 12.599375 -1.2890078
-3.9912045 13.177104 -0.61461961
-3.9114072 12.914463 -0.84139162
-3.8868363 12.833336 -1.0743893
-3.8678527 12.771461 -1.3053638
-4.009254 13.413706 -0.62496585
-3.9166348 13.104665 -0.85284251
-3.887728 13.007946 -1.0878073
-3.8614843 12.920959 -1.3191885
-4.0126228 13.606537 -0.63326067
-3.931247 13.331454 -0.86665827
-3.8749859 13.140664 -1.097711
-3.8597009 13.089673 -1.3349603
-4.0285659 13.820484 -0.64262575
-3.9435275 13.529628 -0.87873149
-3.8833346 13.323116 -1.1119275
-3.8736992 13.290922 -1.3542371
-4.0005207 13.913886 -0.64628261
-3.9843659 13.85861 -0.89914393
-3.8857059 13.515448 -1.126783
-3.8750057 13.479115 -1.3719561
-3.9389901 13.892324 -0.9003886
-3.8899822 13.719481 -1.142597
-3.9276352 14.019958 -0.90785658
-3.8909614 13.88905 -1.1556954
-3.8904514 14.085775 -1.1708704
