# .PCD v0.7 - Point Cloud Data file format
VERSION 0.7
FIELDS x y z normal_x normal_y normal_z curvature
SIZE 4 4 4 4 4 4 4
TYPE F F F F F F F
COUNT 1 1 1 1 1 1 1
WIDTH 887
HEIGHT 1
VIEWPOINT 0 0 0 1 0 0 0
POINTS 887
DATA ascii
-1.0177455 -1.6618719 -0.99459839 0 0 0 7.3054151e-38
-0.96122789 -1.6790628 -0.99057537 0 0 0 7.3054151e-38
-0.90592718 -1.6948299 -0.98673522 0 0 0 7.3054151e-38
-0.8263669 -1.7635021 -0.97759199 0 0 0 7.3054151e-38
-0.80573797 -1.7214146 -0.9799692 0 0 0 7.3054151e-38
-0.78572989 -1.6890554 -0.98161501 0 0 0 7.3054151e-38
-0.79828358 -1.5884953 -0.79933876 0 0 0 7.3054151e-38
-0.76594305 -1.5654097 -0.79963446 0 0 0 7.3054151e-38
-0.61824656 -1.8248434 -0.96314573 0 0 0 7.3054151e-38
-0.58860207 -1.810318 -0.96296287 0 0 0 7.3054151e-38
-0.7645092 -1.4173517 -0.61625886 0 0 0 7.3054151e-38
-0.58333445 -1.7410803 -0.96826589 0 0 0 7.3054151e-38
-0.54571199 -1.7292118 -0.96753448 0 0 0 7.3054151e-38
-0.70245361 -1.3760052 -0.61659706 0 0 0 7.3054151e-38
-0.49366665 -1.7550383 -0.96314573 0 0 0 7.3054151e-38
-0.63288164 -1.419816 -0.61253899 0 0 0 7.3054151e-38
-0.43321657 -1.7854662 -0.95802552 0 0 0 7.3054151e-38
-0.74530363 -2.1513433 -1.2469412 0 0 0 7.3054151e-38
-0.55894566 -1.4727859 -0.60791737 0 0 0 7.3054151e-38
-1.0418468 -1.5838432 -0.93834287 0 0 0 7.3054151e-38
-0.41670609 -1.7356653 -0.96131706 0 0 0 7.3054151e-38
-0.69364595 -2.1642637 -1.2423621 0 0 0 7.3054151e-38
-0.52539206 -1.4637489 -0.60746646 0 0 0 7.3054151e-38
-0.96143675 -1.6518517 -0.92977506 0 0 0 7.3054151e-38
-0.36040449 -1.7709064 -0.95601404 0 0 0 7.3054151e-38
-0.7822299 -1.952714 -1.0848238 0 0 0 7.3054151e-38
-0.64877462 -2.1767635 -1.2382652 0 0 0 7.3054151e-38
-0.47653198 -1.4715624 -0.60577559 0 0 0 7.3054151e-38
-0.37613297 -1.6602831 -0.77952898 0 0 0 7.3054151e-38
-0.90708494 -1.6659489 -0.92634797 0 0 0 7.3054151e-38
-0.32488775 -1.7564068 -0.9556483 0 0 0 7.3054151e-38
-0.73508549 -1.9571314 -1.081936 0 0 0 7.3054151e-38
-0.58935356 -2.203845 -1.2317581 0 0 0 7.3054151e-38
-0.43368435 -1.4804602 -0.6041975 0 0 0 7.3054151e-38
-0.49339867 -1.3679981 -0.80273896 0 0 0 7.3054151e-38
-0.87388754 -1.6556578 -0.92566258 0 0 0 7.3054151e-38
-0.34351158 -1.651289 -0.96497434 0 0 0 7.3054151e-38
-0.69073391 -1.9679604 -1.0786355 0 0 0 7.3054151e-38
-0.539783 -2.2253523 -1.226456 0 0 0 7.3054151e-38
-0.62219715 -1.0365 -0.43314981 0 0 0 7.3054151e-38
-0.55755186 -1.1597776 -0.62347317 0 0 0 7.3054151e-38
-0.80101204 -0.69593811 -0.85743755 0 0 0 7.3054151e-38
-0.78772783 -1.7253342 -0.91675204 0 0 0 7.3054151e-38
-0.27705669 -1.6950693 -0.95857412 0 0 0 7.3054151e-38
-0.6448102 -1.9710884 -1.0759538 0 0 0 7.3054151e-38
-0.49183512 -2.2341375 -1.2226001 0 0 0 7.3054151e-38
-0.5582118 -1.0707293 -0.43082771 0 0 0 7.3054151e-38
-0.71320534 -0.77250671 -0.64691967 0 0 0 7.3054151e-38
-0.75790739 -0.68693352 -0.85655057 0 0 0 7.3054151e-38
-0.7728281 -1.6729555 -0.92000782 0 0 0 7.3054151e-38
-0.70789146 -0.78316498 -1.0511034 0 0 0 7.3054151e-38
-0.60991144 -1.9554768 -1.0755413 0 0 0 7.3054151e-38
-0.45889711 -2.2173576 -1.2223591 0 0 0 7.3054151e-38
-0.49603271 -1.1150532 -0.42819598 0 0 0 7.3054151e-38
-0.74988079 -0.62285233 -0.65537393 0 0 0 7.3054151e-38
-0.79423666 -0.53729343 -0.86763811 0 0 0 7.3054151e-38
-0.74665546 -1.6510229 -0.92052186 0 0 0 7.3054151e-38
-0.15466976 -1.7773342 -0.94668794 0 0 0 7.3054151e-38
-0.56485558 -1.9685926 -1.0720345 0 0 0 7.3054151e-38
-0.40483332 -2.2481194 -1.215852 0 0 0 7.3054151e-38
-0.45816612 -1.1001043 -0.42804119 0 0 0 7.3054151e-38
-0.74928713 -0.53051758 -0.65999556 0 0 0 7.3054151e-38
-0.69343424 -0.64023972 -0.85743755 0 0 0 7.3054151e-38
-0.10110998 -1.7990885 -0.94266492 0 0 0 7.3054151e-38
-0.52309752 -1.9653969 -1.070178 0 0 0 7.3054151e-38
-0.36705875 -2.2402983 -1.214406 0 0 0 7.3054151e-38
-0.35589218 -2.2599716 -1.3881279 0 0 0 7.3054151e-38
-0.40219736 -1.1209583 -0.42633832 0 0 0 7.3054151e-38
-0.62410116 -0.68328667 -0.85226339 0 0 0 7.3054151e-38
-0.066672325 -1.7838001 -0.94248205 0 0 0 7.3054151e-38
-0.4755311 -1.9727898 -1.0670838 0 0 0 7.3054151e-38
-0.30787134 -2.2707033 -1.2076579 0 0 0 7.3054151e-38
-0.29586697 -2.2920332 -1.3801391 0 0 0 7.3054151e-38
-0.33901596 -1.1696663 -0.4235518 0 0 0 7.3054151e-38
-0.58378935 -0.68305397 -0.85093284 0 0 0 7.3054151e-38
-0.019100189 -1.8066435 -0.93864191 0 0 0 7.3054151e-38
-0.43568945 -1.9778185 -1.0646085 0 0 0 7.3054151e-38
-0.27770376 -2.2606163 -1.2069349 0 0 0 7.3054151e-38
-0.28606176 -2.245656 -1.3850976 0 0 0 7.3054151e-38
-0.28089809 -1.1964579 -0.4216167 0 0 0 7.3054151e-38
-0.54171228 -0.67315388 -0.85019368 0 0 0 7.3054151e-38
0.017961025 -1.7970104 -0.93791044 0 0 0 7.3054151e-38
-0.39894915 -1.9664869 -1.0637834 0 0 0 7.3054151e-38
-0.23335075 -2.26548 -1.203802 0 0 0 7.3054151e-38
-0.24552107 -2.2435064 -1.3826183 0 0 0 7.3054151e-38
-0.22746468 -1.2145824 -0.42006862 0 0 0 7.3054151e-38
-0.0071611404 -1.6614857 -0.76696312 0 0 0 7.3054151e-38
0.066487312 -1.8107443 -0.93480176 0 0 0 7.3054151e-38
-0.35357571 -1.9709978 -1.0611017 0 0 0 7.3054151e-38
-0.19101 -2.2670708 -1.2011509 0 0 0 7.3054151e-38
-0.15163898 -2.3387756 -1.3647124 0 0 0 7.3054151e-38
-0.18370485 -1.2264786 -0.41890758 0 0 0 7.3054151e-38
-0.12527466 -1.3458443 -0.60307026 0 0 0 7.3054151e-38
-0.11741972 -1.3623133 -0.79046875 0 0 0 7.3054151e-38
0.092566013 -1.7912703 -0.93535036 0 0 0 7.3054151e-38
-0.32156372 -1.9625568 -1.0602766 0 0 0 7.3054151e-38
-0.15518618 -2.2678413 -1.1989819 0 0 0 7.3054151e-38
-0.17104101 -2.2387495 -1.3782108 0 0 0 7.3054151e-38
-0.13760281 -1.2306929 -0.41797873 0 0 0 7.3054151e-38
-0.060450077 -1.389781 -0.59923762 0 0 0 7.3054151e-38
-0.42520618 -0.63811779 -0.84871536 0 0 0 7.3054151e-38
0.13047695 -1.7838755 -0.93443602 0 0 0 7.3054151e-38
-0.28105879 -1.9586849 -1.0586264 0 0 0 7.3054151e-38
-0.11392879 -2.2680435 -1.1965719 0 0 0 7.3054151e-38
-0.058138847 -2.3713112 -1.3545197 0 0 0 7.3054151e-38
-0.092461109 -1.2333136 -0.41712731 0 0 0 7.3054151e-38
-0.015035152 -1.3944664 -0.59788495 0 0 0 7.3054151e-38
-0.37531757 -0.64504242 -0.84664565 0 0 0 7.3054151e-38
-0.30222368 -1.839901 -0.887793 0 0 0 7.3054151e-38
0.16665649 -1.7730446 -0.93388742 0 0 0 7.3054151e-38
-0.23026085 -1.9742794 -1.0547071 0 0 0 7.3054151e-38
-0.06242609 -2.2876844 -1.1915109 0 0 0 7.3054151e-38
-0.026698589 -2.3543997 -1.3545197 0 0 0 7.3054151e-38
-0.052482605 -1.238554 -0.41627586 0 0 0 7.3054151e-38
0.036455631 -1.425168 -0.59506691 0 0 0 7.3054151e-38
-0.42230225 -1.5448637 -0.91503853 0 0 0 7.3054151e-38
0.20918989 -1.7880173 -0.93096161 0 0 0 7.3054151e-38
-0.20020056 -1.9627514 -1.0542945 0 0 0 7.3054151e-38
-0.034286499 -2.2749214 -1.1912699 0 0 0 7.3054151e-38
-0.012716293 -2.3155069 -1.3583764 0 0 0 7.3054151e-38
-0.016890526 -1.2216711 -0.41627586 0 0 0 7.3054151e-38
0.075625896 -1.4176388 -0.59450328 0 0 0 7.3054151e-38
-0.78904057 -0.7650156 -0.9890641 0 0 0 7.3054151e-38
0.2385149 -1.7630844 -0.93187594 0 0 0 7.3054151e-38
-0.15149975 -1.9752436 -1.0507877 0 0 0 7.3054151e-38
0.014163494 -2.2897177 -1.1869318 0 0 0 7.3054151e-38
-0.01615572 -2.2321634 -1.3688445 0 0 0 7.3054151e-38
0.034006119 -1.250741 -0.41441819 0 0 0 7.3054151e-38
0.14875269 -1.4957886 -0.58875436 0 0 0 7.3054151e-38
0.22725439 -1.6638536 -0.75927573 0 0 0 7.3054151e-38
-0.48285961 -1.2726936 -0.93817151 0 0 0 7.3054151e-38
0.27750492 -1.7711611 -0.9296816 0 0 0 7.3054151e-38
-0.11777973 -1.9710274 -1.0495501 0 0 0 7.3054151e-38
0.042284489 -2.2772017 -1.1866908 0 0 0 7.3054151e-38
0.070880413 -2.3319016 -1.3509386 0 0 0 7.3054151e-38
0.06703043 -1.2287359 -0.41465038 0 0 0 7.3054151e-38
0.18592119 -1.485076 -0.58841622 0 0 0 7.3054151e-38
-0.81349564 -1.5782804 -0.73746461 0 0 0 7.3054151e-38
0.26883888 -1.664278 -0.75794524 0 0 0 7.3054151e-38
-0.72331858 -0.72168541 -0.98974949 0 0 0 7.3054151e-38
0.31868505 -1.7717447 -0.9280358 0 0 0 7.3054151e-38
-0.082126617 -1.959199 -1.0489312 0 0 0 7.3054151e-38
0.074069023 -2.2606592 -1.1866908 0 0 0 7.3054151e-38
0.030470371 -2.1765137 -1.3727012 0 0 0 7.3054151e-38
0.1210103 -1.2522449 -0.41294751 0 0 0 7.3054151e-38
0.22644281 -1.4817667 -0.58762711 0 0 0 7.3054151e-38
-0.75443125 -1.6019382 -0.73405862 0 0 0 7.3054151e-38
0.29537535 -1.6322575 -0.75927573 0 0 0 7.3054151e-38
-0.66853333 -0.73602676 -0.98649377 0 0 0 7.3054151e-38
0.36312819 -1.7797461 -0.92565858 0 0 0 7.3054151e-38
-0.036453724 -1.9669781 -1.0460433 0 0 0 7.3054151e-38
0.12042475 -2.2724924 -1.1828349 0 0 0 7.3054151e-38
0.082530975 -2.1986961 -1.3666407 0 0 0 7.3054151e-38
0.15395594 -1.2437668 -0.41271529 0 0 0 7.3054151e-38
0.27190971 -1.5026884 -0.5854854 0 0 0 7.3054151e-38
-0.76143837 -1.5210056 -0.7390995 0 0 0 7.3054151e-38
0.33208227 -1.6352053 -0.75794524 0 0 0 7.3054151e-38
-0.63554335 -0.72139072 -0.9863224 0 0 0 7.3054151e-38
0.39605808 -1.7756319 -0.92474425 0 0 0 7.3054151e-38
0.0044054985 -1.9773607 -1.0431554 0 0 0 7.3054151e-38
0.14497519 -2.2532444 -1.1835579 0 0 0 7.3054151e-38
0.13160181 -2.2269974 -1.3600292 0 0 0 7.3054151e-38
0.19117117 -1.2312841 -0.41256049 0 0 0 7.3054151e-38
0.29421425 -1.4596901 -0.58717626 0 0 0 7.3054151e-38
-0.73566675 -1.4858627 -0.74032563 0 0 0 7.3054151e-38
0.37442064 -1.6379099 -0.75646687 0 0 0 7.3054151e-38
-0.10497904 -1.678916 -0.89224821 0 0 0 7.3054151e-38
0.43213558 -1.7658358 -0.92419565 0 0 0 7.3054151e-38
0.042669296 -1.9713364 -1.0419177 0 0 0 7.3054151e-38
0.18579578 -2.2548018 -1.1811478 0 0 0 7.3054151e-38
0.16267681 -2.2090139 -1.3603047 0 0 0 7.3054151e-38
0.23657036 -1.2371912 -0.41163164 0 0 0 7.3054151e-38
-0.75799179 -1.3640213 -0.55405921 0 0 0 7.3054151e-38
0.34935522 -1.4896555 -0.58435816 0 0 0 7.3054151e-38
0.39959669 -1.6025572 -0.75809306 0 0 0 7.3054151e-38
-0.056735039 -1.6903505 -0.88950652 0 0 0 7.3054151e-38
0.46985388 -1.7598181 -0.92328131 0 0 0 7.3054151e-38
0.07646513 -1.9565763 -1.0417114 0 0 0 7.3054151e-38
0.21854973 -2.2405615 -1.1809068 0 0 0 7.3054151e-38
0.19293785 -2.1893702 -1.3608557 0 0 0 7.3054151e-38
0.27355194 -1.2382374 -0.41101241 0 0 0 7.3054151e-38
-0.71532297 -1.3700552 -0.55274647 0 0 0 7.3054151e-38
0.37178946 -1.4600067 -0.58537269 0 0 0 7.3054151e-38
0.42329979 -1.5767317 -0.75912791 0 0 0 7.3054151e-38
-0.024106503 -1.6829948 -0.88882113 0 0 0 7.3054151e-38
0.50436401 -1.7597237 -0.9220013 0 0 0 7.3054151e-38
0.10471249 -1.9424992 -1.0417114 0 0 0 7.3054151e-38
0.25208378 -2.239377 -1.1792198 0 0 0 7.3054151e-38
0.23190355 -2.1987238 -1.3572745 0 0 0 7.3054151e-38
0.30753756 -1.2188892 -0.41116723 0 0 0 7.3054151e-38
-0.66773605 -1.373517 -0.5514338 0 0 0 7.3054151e-38
0.42100382 -1.4775934 -0.58334363 0 0 0 7.3054151e-38
0.45845032 -1.5634165 -0.7589801 0 0 0 7.3054151e-38
-1.0735559 -1.6270561 -0.87264186 0 0 0 7.3054151e-38
0.026566029 -1.7001867 -0.88556534 0 0 0 7.3054151e-38
0.53804207 -1.7448788 -0.9220013 0 0 0 7.3054151e-38
0.16142893 -1.9743853 -1.0361419 0 0 0 7.3054151e-38
0.28663445 -2.2289486 -1.1784968 0 0 0 7.3054151e-38
0.27446604 -2.2042084 -1.3539687 0 0 0 7.3054151e-38
0.35275173 -1.2253237 -0.41023839 0 0 0 7.3054151e-38
-0.60595131 -1.4035311 -0.54860646 0 0 0 7.3054151e-38
0.46287441 -1.4789286 -0.58232915 0 0 0 7.3054151e-38
0.36096907 -1.2447109 -0.78352052 0 0 0 7.3054151e-38
-1.0137038 -1.6491461 -0.86864847 0 0 0 7.3054151e-38
0.066575527 -1.6961298 -0.88436586 0 0 0 7.3054151e-38
0.58208752 -1.7539053 -0.91962403 0 0 0 7.3054151e-38
0.19257975 -1.9547052 -1.0365545 0 0 0 7.3054151e-38
0.31946421 -2.2150869 -1.1782558 0 0 0 7.3054151e-38
0.36205339 -2.3024855 -1.3363383 0 0 0 7.3054151e-38
0.37776327 -1.1992683 -0.41078022 0 0 0 7.3054151e-38
-0.55890894 -1.4189644 -0.54678887 0 0 0 7.3054151e-38
0.49025202 -1.4605656 -0.58266729 0 0 0 7.3054151e-38
0.23449945 -0.86697006 -0.81293952 0 0 0 7.3054151e-38
-0.95281219 -1.6847134 -0.86369663 0 0 0 7.3054151e-38
0.11038494 -1.7125206 -0.8814528 0 0 0 7.3054151e-38
0.60466862 -1.7267828 -0.92108697 0 0 0 7.3054151e-38
-0.84201908 -1.8699894 -1.0333481 0 0 0 7.3054151e-38
0.23641729 -1.9732313 -1.0328414 0 0 0 7.3054151e-38
0.3512187 -2.2107096 -1.1770508 0 0 0 7.3054151e-38
0.39352369 -2.2982206 -1.3349608 0 0 0 7.3054151e-38
0.4189806 -1.1968327 -0.41023839 0 0 0 7.3054151e-38
-0.52209282 -1.4037485 -0.54658693 0 0 0 7.3054151e-38
0.53128958 -1.4603653 -0.58176553 0 0 0 7.3054151e-38
-0.38984728 -1.6513586 -0.71907228 0 0 0 7.3054151e-38
0.28005314 -0.87132454 -0.81131333 0 0 0 7.3054151e-38
-0.91986465 -1.6628122 -0.86385638 0 0 0 7.3054151e-38
0.15542746 -1.719595 -0.87922519 0 0 0 7.3054151e-38
0.66970062 -1.7855921 -0.9137724 0 0 0 7.3054151e-38
-0.80163956 -1.8621998 -1.0319852 0 0 0 7.3054151e-38
0.26673698 -1.9520197 -1.0334603 0 0 0 7.3054151e-38
0.38839006 -2.2060432 -1.1756048 0 0 0 7.3054151e-38
0.36961317 -2.1668348 -1.3528669 0 0 0 7.3054151e-38
0.44727993 -1.1783123 -0.4104706 0 0 0 7.3054151e-38
-0.48087978 -1.4089718 -0.54537523 0 0 0 7.3054151e-38
0.42976761 -1.136858 -0.60081577 0 0 0 7.3054151e-38
-0.52323961 -1.3290558 -0.74277794 0 0 0 7.3054151e-38
-0.89573956 -1.6370125 -0.86465502 0 0 0 7.3054151e-38
0.18356371 -1.7039661 -0.87939656 0 0 0 7.3054151e-38
0.69460678 -1.7642059 -0.91468674 0 0 0 7.3054151e-38
-0.74888897 -1.8865509 -1.027312 0 0 0 7.3054151e-38
0.30524111 -1.9601021 -1.0309849 0 0 0 7.3054151e-38
0.41159248 -2.1839781 -1.1768098 0 0 0 7.3054151e-38
0.36234856 -2.0803165 -1.3641614 0 0 0 7.3054151e-38
0.4776926 -1.1503544 -0.41101241 0 0 0 7.3054151e-38
-0.4245429 -1.4311876 -0.54305273 0 0 0 7.3054151e-38
0.57126427 -1.3741322 -0.58537269 0 0 0 7.3054151e-38
-0.79607773 -0.72399712 -0.78800946 0 0 0 7.3054151e-38
0.67572093 -1.6243992 -0.74848384 0 0 0 7.3054151e-38
-0.80840492 -1.7083282 -0.85618901 0 0 0 7.3054151e-38
0.2259326 -1.7059755 -0.87768298 0 0 0 7.3054151e-38
0.71597362 -1.7206593 -0.91761255 0 0 0 7.3054151e-38
-0.69562483 -1.9015083 -1.0234177 0 0 0 7.3054151e-38
0.34157419 -1.951726 -1.0301598 0 0 0 7.3054151e-38
0.46315956 -2.2101088 -1.1712668 0 0 0 7.3054151e-38
0.44545889 -2.172492 -1.3476328 0 0 0 7.3054151e-38
0.51436901 -1.1372623 -0.41093501 0 0 0 7.3054151e-38
-0.39426661 -1.4040813 -0.54355764 0 0 0 7.3054151e-38
0.6376617 -1.4351826 -0.580751 0 0 0 7.3054151e-38
-0.78808403 -0.64775848 -0.79236913 0 0 0 7.3054151e-38
0.6877749 -1.5567379 -0.75277102 0 0 0 7.3054151e-38
-0.7934804 -1.6558743 -0.85922396 0 0 0 7.3054151e-38
0.26486063 -1.7009468 -0.87665486 0 0 0 7.3054151e-38
0.73075318 -1.6605835 -0.92218417 0 0 0 7.3054151e-38
-0.65747929 -1.8908815 -1.0224441 0 0 0 7.3054151e-38
0.3770709 -1.9416914 -1.029541 0 0 0 7.3054151e-38
0.48428345 -2.1717148 -1.1743997 0 0 0 7.3054151e-38
0.48097229 -2.1646099 -1.3465309 0 0 0 7.3054151e-38
0.5520134 -1.1412058 -0.41023839 0 0 0 7.3054151e-38
-0.74664307 -0.64853954 -0.58566493 0 0 0 7.3054151e-38
0.64859986 -1.3766842 -0.58356911 0 0 0 7.3054151e-38
-0.79968739 -0.54588223 -0.79890865 0 0 0 7.3054151e-38
0.44780731 -0.88764954 -0.80539995 0 0 0 7.3054151e-38
0.29809093 -1.6965065 -0.87579811 0 0 0 7.3054151e-38
0.7765553 -1.6891003 -0.91816115 0 0 0 7.3054151e-38
-0.59831905 -1.9280233 -1.016408 0 0 0 7.3054151e-38
0.41204166 -1.9430046 -1.0278907 0 0 0 7.3054151e-38
0.52351618 -2.1841478 -1.1710258 0 0 0 7.3054151e-38
0.53931904 -2.2183323 -1.3363383 0 0 0 7.3054151e-38
0.56991959 -1.0820961 -0.41209608 0 0 0 7.3054151e-38
-0.74712181 -0.55444431 -0.58990592 0 0 0 7.3054151e-38
0.50269127 -0.91646767 -0.61073542 0 0 0 7.3054151e-38
-0.79506207 -1.5054531 -0.67684728 0 0 0 7.3054151e-38
0.48243189 -0.86705875 -0.80584347 0 0 0 7.3054151e-38
-0.67003107 -1.7252798 -0.84948003 0 0 0 7.3054151e-38
0.33863831 -1.6953993 -0.87442726 0 0 0 7.3054151e-38
0.80899239 -1.6715622 -0.91852683 0 0 0 7.3054151e-38
-0.5622983 -1.9143257 -1.0158238 0 0 0 7.3054151e-38
0.44918919 -1.9368639 -1.0268593 0 0 0 7.3054151e-38
0.55233288 -2.1621485 -1.1719898 0 0 0 7.3054151e-38
0.57956243 -2.2216234 -1.3335835 0 0 0 7.3054151e-38
0.57703233 -0.99516964 -0.41511482 0 0 0 7.3054151e-38
-0.74867725 -1.506711 -0.67535365 0 0 0 7.3054151e-38
-0.66284609 -0.62600517 -0.78978056 0 0 0 7.3054151e-38
0.52755928 -0.87249756 -0.80421728 0 0 0 7.3054151e-38
-0.61663342 -1.74086 -0.84628528 0 0 0 7.3054151e-38
0.3766675 -1.6890211 -0.87357044 0 0 0 7.3054151e-38
0.84373403 -1.6596823 -0.91834402 0 0 0 7.3054151e-38
-0.51158094 -1.9267788 -1.012319 0 0 0 7.3054151e-38
0.48139668 -1.9200029 -1.0270656 0 0 0 7.3054151e-38
0.58371592 -2.145668 -1.1722307 0 0 0 7.3054151e-38
0.57637239 -2.1294718 -1.3454289 0 0 0 7.3054151e-38
0.57947636 -0.91025257 -0.41813356 0 0 0 7.3054151e-38
-0.2118783 -1.4408398 -0.53770095 0 0 0 7.3054151e-38
-0.73656321 -1.4586916 -0.67759407 0 0 0 7.3054151e-38
-0.60618639 -0.65773106 -0.78610212 0 0 0 7.3054151e-38
0.56584787 -0.87652111 -0.80288678 0 0 0 7.3054151e-38
-0.56822872 -1.7593985 -0.84309059 0 0 0 7.3054151e-38
0.41719389 -1.7013311 -0.87117147 0 0 0 7.3054151e-38
0.86259937 -1.6221104 -0.9209041 0 0 0 7.3054151e-38
-0.47448635 -1.926486 -1.0105666 0 0 0 7.3054151e-38
0.51873064 -1.9271555 -1.0247965 0 0 0 7.3054151e-38
0.61380911 -2.1386156 -1.1715077 0 0 0 7.3054151e-38
0.60244942 -2.1133509 -1.3459799 0 0 0 7.3054151e-38
0.58478308 -0.81572819 -0.42146188 0 0 0 7.3054151e-38
-0.17791843 -1.4215841 -0.53780192 0 0 0 7.3054151e-38
-0.71436596 -1.4166107 -0.67921215 0 0 0 7.3054151e-38
-0.56044436 -0.65489197 -0.78487599 0 0 0 7.3054151e-38
0.57060909 -0.78025055 -0.8093915 0 0 0 7.3054151e-38
-0.53260708 -1.7441082 -0.84277111 0 0 0 7.3054151e-38
0.44784498 -1.6788855 -0.87185693 0 0 0 7.3054151e-38
0.90991426 -1.6419353 -0.91761255 0 0 0 7.3054151e-38
-0.43078804 -1.9271965 -1.0084248 0 0 0 7.3054151e-38
0.54774952 -1.9032755 -1.0258279 0 0 0 7.3054151e-38
0.64367533 -2.1187277 -1.1722307 0 0 0 7.3054151e-38
0.588099 -1.9939013 -1.3619576 0 0 0 7.3054151e-38
-0.36439562 -0.95639038 -0.36559343 0 0 0 7.3054151e-38
0.59072948 -0.72110844 -0.42479023 0 0 0 7.3054151e-38
-0.76546049 -1.2413273 -0.49421087 0 0 0 7.3054151e-38
-0.1252923 -1.440052 -0.5357824 0 0 0 7.3054151e-38
-0.51563549 -0.6504612 -0.78378606 0 0 0 7.3054151e-38
-0.47387791 -1.770875 -0.83861792 0 0 0 7.3054151e-38
0.48825026 -1.6784201 -0.87048608 0 0 0 7.3054151e-38
0.93679214 -1.6100187 -0.91944116 0 0 0 7.3054151e-38
-0.38620329 -1.9298506 -1.0060881 0 0 0 7.3054151e-38
0.59213591 -1.914072 -1.02294 0 0 0 7.3054151e-38
0.67203212 -2.0953074 -1.1734358 0 0 0 7.3054151e-38
0.67126036 -2.0935564 -1.3446026 0 0 0 7.3054151e-38
-0.3374052 -0.93195915 -0.3659215 0 0 0 7.3054151e-38
0.58544064 -0.6116991 -0.42881522 0 0 0 7.3054151e-38
-0.69090843 -1.3052711 -0.49010807 0 0 0 7.3054151e-38
-0.10333729 -1.4092026 -0.53669119 0 0 0 7.3054151e-38
0.60964155 -0.67441082 -0.62121874 0 0 0 7.3054151e-38
-0.47010231 -0.66140175 -0.78174245 0 0 0 7.3054151e-38
0.59462118 -0.63602352 -0.81870502 0 0 0 7.3054151e-38
-0.44217777 -1.7603188 -0.83813876 0 0 0 7.3054151e-38
0.52614784 -1.6857224 -0.86860114 0 0 0 7.3054151e-38
0.78828955 -1.1378489 -0.96479148 0 0 0 7.3054151e-38
-0.34642124 -1.9352837 -1.0037515 0 0 0 7.3054151e-38
0.62688804 -1.9161968 -1.0212898 0 0 0 7.3054151e-38
0.69904566 -2.0812807 -1.1736767 0 0 0 7.3054151e-38
0.7062149 -2.097683 -1.3421233 0 0 0 7.3054151e-38
-0.28933001 -0.93740749 -0.36506853 0 0 0 7.3054151e-38
0.58697939 -0.50193596 -0.4327628 0 0 0 7.3054151e-38
-0.64604425 -1.3036184 -0.48921615 0 0 0 7.3054151e-38
-0.077973366 -1.3723698 -0.53780192 0 0 0 7.3054151e-38
0.64800906 -0.66182423 -0.62110597 0 0 0 7.3054151e-38
0.65873528 -0.69046211 -0.81323516 0 0 0 7.3054151e-38
-0.39520741 -1.7665491 -0.83590239 0 0 0 7.3054151e-38
0.55693197 -1.6636419 -0.8692866 0 0 0 7.3054151e-38
0.83347845 -1.1482372 -0.96241426 0 0 0 7.3054151e-38
-0.29916668 -1.9435749 -1.0008309 0 0 0 7.3054151e-38
0.6552515 -1.8908453 -1.0225275 0 0 0 7.3054151e-38
0.71577382 -2.0307035 -1.1784968 0 0 0 7.3054151e-38
0.72291851 -2.0472145 -1.3476328 0 0 0 7.3054151e-38
-0.28991556 -0.84221077 -0.36788988 0 0 0 7.3054151e-38
0.58221126 -0.37335014 -0.43748441 0 0 0 7.3054151e-38
-0.59840393 -1.3074455 -0.48805666 0 0 0 7.3054151e-38
-0.03853941 -1.3643913 -0.53729707 0 0 0 7.3054151e-38
0.6567955 -0.57091904 -0.62572765 0 0 0 7.3054151e-38
0.69562697 -0.67432404 -0.81338298 0 0 0 7.3054151e-38
-0.35400677 -1.7624598 -0.83462453 0 0 0 7.3054151e-38
0.6003778 -1.67097 -0.8672303 0 0 0 7.3054151e-38
0.88346434 -1.1718674 -0.95875698 0 0 0 7.3054151e-38
-0.2642746 -1.9292917 -1.0004414 0 0 0 7.3054151e-38
0.70489883 -1.9149532 -1.0181956 0 0 0 7.3054151e-38
0.76490211 -2.0550194 -1.3443271 0 0 0 7.3054151e-38
-0.28745222 -0.76565933 -0.3701207 0 0 0 7.3054151e-38
0.58533168 -0.28037643 -0.44081277 0 0 0 7.3054151e-38
-0.5643568 -1.2983055 -0.4876999 0 0 0 7.3054151e-38
0.003619194 -1.3751907 -0.53588337 0 0 0 7.3054151e-38
-0.4092021 -1.5892134 -0.66066664 0 0 0 7.3054151e-38
0.7020514 -0.5930748 -0.81885284 0 0 0 7.3054151e-38
-0.44416857 -1.5235615 -0.85491109 0 0 0 7.3054151e-38
0.63107753 -1.6622076 -0.86688763 0 0 0 7.3054151e-38
0.93091464 -1.2051001 -0.95436823 0 0 0 7.3054151e-38
-0.22564745 -1.9334688 -0.9982996 0 0 0 7.3054151e-38
0.72549772 -1.8845396 -1.0202584 0 0 0 7.3054151e-38
0.76331925 -1.9735985 -1.1825938 0 0 0 7.3054151e-38
0.7680583 -1.9847574 -1.3531424 0 0 0 7.3054151e-38
-0.25354433 -0.74069023 -0.37038314 0 0 0 7.3054151e-38
0.5856185 -0.16086769 -0.44514737 0 0 0 7.3054151e-38
-0.49726534 -1.3396206 -0.48466739 0 0 0 7.3054151e-38
0.65822148 -0.35722351 -0.63699996 0 0 0 7.3054151e-38
-0.52865458 -1.2797546 -0.6812036 0 0 0 7.3054151e-38
0.70057487 -0.47233009 -0.82727939 0 0 0 7.3054151e-38
-0.81168795 -0.74361515 -0.92391735 0 0 0 7.3054151e-38
0.69677186 -1.7231417 -0.85986203 0 0 0 7.3054151e-38
0.92310643 -1.0741377 -0.96588868 0 0 0 7.3054151e-38
-0.18052101 -1.9388304 -0.99576831 0 0 0 7.3054151e-38
0.74638247 -1.8411617 -1.0235589 0 0 0 7.3054151e-38
0.77466893 -1.908452 -1.1893419 0 0 0 7.3054151e-38
0.78248644 -1.9270496 -1.3597537 0 0 0 7.3054151e-38
-0.20510054 -0.74660492 -0.3695302 0 0 0 7.3054151e-38
0.58192468 -0.028079987 -0.45002377 0 0 0 7.3054151e-38
-0.45555639 -1.333499 -0.48404303 0 0 0 7.3054151e-38
0.12386465 -1.448678 -0.52992576 0 0 0 7.3054151e-38
0.66138577 -0.24542904 -0.6428616 0 0 0 7.3054151e-38
-0.77916288 -0.71461391 -0.71966362 0 0 0 7.3054151e-38
0.2199645 -1.6537733 -0.70027119 0 0 0 7.3054151e-38
-0.77150393 -0.72925186 -0.92343813 0 0 0 7.3054151e-38
0.72445917 -1.6942844 -0.86123288 0 0 0 7.3054151e-38
0.74318671 -0.46974564 -1.0236738 0 0 0 7.3054151e-38
-0.14195824 -1.9320564 -0.9946 0 0 0 7.3054151e-38
0.76294875 -1.7867947 -1.028097 0 0 0 7.3054151e-38
0.78034401 -1.8286047 -1.198018 0 0 0 7.3054151e-38
0.78739452 -1.8455505 -1.3699465 0 0 0 7.3054151e-38
-0.13345575 -0.81684685 -0.36644641 0 0 0 7.3054151e-38
0.58221221 0.078356743 -0.45389396 0 0 0 7.3054151e-38
-0.40417147 -1.3585367 -0.48199162 0 0 0 7.3054151e-38
0.15875816 -1.4456205 -0.52931988 0 0 0 7.3054151e-38
0.65422153 -0.12054443 -0.649625 0 0 0 7.3054151e-38
-0.7700057 -0.65356731 -0.72277528 0 0 0 7.3054151e-38
0.25504875 -1.6528149 -0.69931751 0 0 0 7.3054151e-38
0.67278814 -0.17241573 -0.84886318 0 0 0 7.3054151e-38
0.73529553 -1.638032 -0.86534542 0 0 0 7.3054151e-38
0.72660732 -0.3210659 -1.0370228 0 0 0 7.3054151e-38
-0.10170889 -1.940258 -0.99206871 0 0 0 7.3054151e-38
0.76139021 -1.7013111 -1.0363482 0 0 0 7.3054151e-38
0.77492905 -1.7341423 -1.208863 0 0 0 7.3054151e-38
0.77747202 -1.7403088 -1.3839958 0 0 0 7.3054151e-38
-0.084616184 -0.82509232 -0.36552781 0 0 0 7.3054151e-38
0.57481384 0.22650051 -0.4593896 0 0 0 7.3054151e-38
-0.36261702 -1.3528004 -0.48136729 0 0 0 7.3054151e-38
0.21196413 -1.469429 -0.52709842 0 0 0 7.3054151e-38
0.65757227 -0.0047369003 -0.65571207 0 0 0 7.3054151e-38
-0.76788568 -0.5648365 -0.72762948 0 0 0 7.3054151e-38
0.29662895 -1.6533689 -0.69809139 0 0 0 7.3054151e-38
0.65380883 0.0051765442 -0.86172473 0 0 0 7.3054151e-38
-0.28773165 -1.4979134 -0.8509177 0 0 0 7.3054151e-38
0.78673482 -1.6664667 -0.86140424 0 0 0 7.3054151e-38
0.73065782 -0.20953751 -1.0465318 0 0 0 7.3054151e-38
-0.05320549 -1.9532785 -0.98875856 0 0 0 7.3054151e-38
0.77498627 -1.6376781 -1.0419177 0 0 0 7.3054151e-38
0.78994489 -1.6743326 -1.214888 0 0 0 7.3054151e-38
-0.059453964 -0.79596615 -0.36605272 0 0 0 7.3054151e-38
0.58121419 0.3200016 -0.46271795 0 0 0 7.3054151e-38
-0.32247543 -1.3569202 -0.48038617 0 0 0 7.3054151e-38
0.23925257 -1.4503288 -0.52740133 0 0 0 7.3054151e-38
0.64993095 0.12608051 -0.66281366 0 0 0 7.3054151e-38
-0.21783161 -1.5614405 -0.65668374 0 0 0 7.3054151e-38
0.32831383 -1.6454306 -0.69768268 0 0 0 7.3054151e-38
0.64557862 0.13774872 -0.87118614 0 0 0 7.3054151e-38
-0.6542387 -0.70678711 -0.9207226 0 0 0 7.3054151e-38
0.81962562 -1.6638584 -0.86054742 0 0 0 7.3054151e-38
0.73378921 -0.11117077 -1.0549436 0 0 0 7.3054151e-38
-0.026757717 -1.9352484 -0.98914802 0 0 0 7.3054151e-38
0.76843047 -1.5372734 -1.0518191 0 0 0 7.3054151e-38
0.77738905 -1.5594244 -1.2283841 0 0 0 7.3054151e-38
-0.020593166 -0.7827034 -0.3659215 0 0 0 7.3054151e-38
0.57363009 0.47412777 -0.46844581 0 0 0 7.3054151e-38
-0.27648973 -1.3604393 -0.47931588 0 0 0 7.3054151e-38
0.28805447 -1.4654551 -0.52568471 0 0 0 7.3054151e-38
0.63705635 0.29303074 -0.67194426 0 0 0 7.3054151e-38
-0.31860924 -1.2767868 -0.67535365 0 0 0 7.3054151e-38
0.37227535 -1.6517591 -0.69604778 0 0 0 7.3054151e-38
0.69478154 0.12759304 -0.8692643 0 0 0 7.3054151e-38
-0.61219311 -0.6965971 -0.91992396 0 0 0 7.3054151e-38
0.8506918 -1.6427698 -0.86123288 0 0 0 7.3054151e-38
0.72544789 0.040038109 -1.0682926 0 0 0 7.3054151e-38
0.010774136 -1.9273357 -0.98817444 0 0 0 7.3054151e-38
0.77631474 -1.4569082 -1.0592452 0 0 0 7.3054151e-38
0.7867198 -1.4829092 -1.2365781 0 0 0 7.3054151e-38
0.025653839 -0.78600979 -0.36519974 0 0 0 7.3054151e-38
0.57365966 0.60957336 -0.47339961 0 0 0 7.3054151e-38
-0.23686504 -1.3516655 -0.47886992 0 0 0 7.3054151e-38
0.32607698 -1.4571114 -0.52528083 0 0 0 7.3054151e-38
0.6358037 0.43002987 -0.67927128 0 0 0 7.3054151e-38
-0.60972738 -0.60763168 -0.72078383 0 0 0 7.3054151e-38
0.40716553 -1.6382513 -0.69591153 0 0 0 7.3054151e-38
0.67796326 0.30759048 -0.88227367 0 0 0 7.3054151e-38
-0.059009075 -1.7059536 -0.82775587 0 0 0 7.3054151e-38
0.88993096 -1.6421633 -0.86003339 0 0 0 7.3054151e-38
0.73054194 0.1556921 -1.0781673 0 0 0 7.3054151e-38
0.05454731 -1.9320316 -0.98583788 0 0 0 7.3054151e-38
0.77741408 -1.3579779 -1.068734 0 0 0 7.3054151e-38
0.78778982 -1.3841839 -1.2476642 0 0 0 7.3054151e-38
0.049468517 -0.75350857 -0.36585587 0 0 0 7.3054151e-38
0.57239699 0.73173141 -0.47788903 0 0 0 7.3054151e-38
-0.19069624 -1.3688059 -0.47726446 0 0 0 7.3054151e-38
0.35346079 -1.438344 -0.52558374 0 0 0 7.3054151e-38
0.63530278 0.54812431 -0.68558377 0 0 0 7.3054151e-38
-0.55945635 -0.62714863 -0.7182945 0 0 0 7.3054151e-38
0.44450665 -1.6434517 -0.69454914 0 0 0 7.3054151e-38
0.68293571 0.40844917 -0.88922191 0 0 0 7.3054151e-38
-0.12410021 -1.5022497 -0.84468794 0 0 0 7.3054151e-38
0.91697907 -1.6250782 -0.86054742 0 0 0 7.3054151e-38
0.73056245 0.26944542 -1.088042 0 0 0 7.3054151e-38
0.085531712 -1.9232321 -0.98525375 0 0 0 7.3054151e-38
0.7755723 -1.2646208 -1.0778104 0 0 0 7.3054151e-38
0.78447819 -1.287323 -1.2587503 0 0 0 7.3054151e-38
0.11579227 -0.80288124 -0.36349383 0 0 0 7.3054151e-38
0.57291269 0.87124729 -0.48299766 0 0 0 7.3054151e-38
-0.13967896 -1.3836727 -0.47565901 0 0 0 7.3054151e-38
0.40117741 -1.4522057 -0.52396816 0 0 0 7.3054151e-38
0.6172533 0.74026489 -0.69617981 0 0 0 7.3054151e-38
-0.50573397 -0.64063931 -0.71605414 0 0 0 7.3054151e-38
0.47941399 -1.6302147 -0.69441289 0 0 0 7.3054151e-38
0.67339373 0.57376194 -0.9010486 0 0 0 7.3054151e-38
-0.46937466 -0.7144022 -0.91353446 0 0 0 7.3054151e-38
0.95331049 -1.6173191 -0.86003339 0 0 0 7.3054151e-38
0.72505569 0.42115974 -1.1013911 0 0 0 7.3054151e-38
0.1247735 -1.9193487 -0.98389071 0 0 0 7.3054151e-38
0.77363801 -1.154335 -1.0885369 0 0 0 7.3054151e-38
0.7803793 -1.1717062 -1.2720053 0 0 0 7.3054151e-38
0.13782597 -0.75179291 -0.36474046 0 0 0 7.3054151e-38
0.57376432 1.0128098 -0.48818368 0 0 0 7.3054151e-38
-0.10637188 -1.3628788 -0.47583741 0 0 0 7.3054151e-38
0.43279505 -1.4296579 -0.52437204 0 0 0 7.3054151e-38
0.65312696 0.77550983 -0.69741976 0 0 0 7.3054151e-38
-0.44341993 -0.67232132 -0.71256906 0 0 0 7.3054151e-38
0.51515961 -1.6189375 -0.69414043 0 0 0 7.3054151e-38
0.68715453 0.67309093 -0.90770113 0 0 0 7.3054151e-38
-0.053910732 -1.4698744 -0.8445282 0 0 0 7.3054151e-38
0.97322559 -1.5669136 -0.86346048 0 0 0 7.3054151e-38
0.72945428 0.54661942 -1.11218 0 0 0 7.3054151e-38
0.15088129 -1.8888016 -0.98544842 0 0 0 7.3054151e-38
0.77959085 -1.0624781 -1.0972006 0 0 0 7.3054151e-38
0.78561568 -1.0781727 -1.2823684 0 0 0 7.3054151e-38
0.17302561 -0.74525547 -0.36447802 0 0 0 7.3054151e-38
0.57491875 1.135354 -0.4926731 0 0 0 7.3054151e-38
-0.061448097 -1.3787975 -0.47432116 0 0 0 7.3054151e-38
0.47377348 -1.442379 -0.5229584 0 0 0 7.3054151e-38
-0.45378256 -0.56859398 -0.71866792 0 0 0 7.3054151e-38
0.54683685 -1.6117363 -0.69373173 0 0 0 7.3054151e-38
0.69044518 0.78559303 -0.91553634 0 0 0 7.3054151e-38
0.82917094 -1.0993357 -0.9054426 0 0 0 7.3054151e-38
0.71737695 0.70422077 -1.1262606 0 0 0 7.3054151e-38
0.2053771 -1.9286985 -0.97960699 0 0 0 7.3054151e-38
0.77246165 -0.9502039 -1.1083397 0 0 0 7.3054151e-38
0.77992344 -0.96982765 -1.2949004 0 0 0 7.3054151e-38
0.20885372 -0.72552586 -0.36460924 0 0 0 7.3054151e-38
0.57139397 1.2961893 -0.49863315 0 0 0 7.3054151e-38
-0.027234554 -1.3600798 -0.47441033 0 0 0 7.3054151e-38
0.50626135 -1.4219122 -0.52326131 0 0 0 7.3054151e-38
0.63928318 1.0885067 -0.714441 0 0 0 7.3054151e-38
0.093018532 -1.6101894 -0.64535731 0 0 0 7.3054151e-38
0.48231268 -1.3658361 -0.71089792 0 0 0 7.3054151e-38
0.081402302 -1.585988 -0.83142978 0 0 0 7.3054151e-38
0.86737156 -1.0912809 -0.90492851 0 0 0 7.3054151e-38
0.72419119 0.82806587 -1.1368667 0 0 0 7.3054151e-38
0.23585415 -1.9073725 -0.98019117 0 0 0 7.3054151e-38
0.77829361 -0.85441875 -1.117416 0 0 0 7.3054151e-38
0.78434634 -0.87051296 -1.3059865 0 0 0 7.3054151e-38
0.2331748 -0.69346333 -0.36526537 0 0 0 7.3054151e-38
0.56803894 1.4379997 -0.50389659 0 0 0 7.3054151e-38
0.014053345 -1.3691311 -0.47325084 0 0 0 7.3054151e-38
0.4972496 -1.3172178 -0.52831012 0 0 0 7.3054151e-38
0.63961172 1.2166967 -0.72131711 0 0 0 7.3054151e-38
0.11291504 -1.5763407 -0.64672643 0 0 0 7.3054151e-38
0.61276507 -1.5900698 -0.69332302 0 0 0 7.3054151e-38
0.68749237 1.067934 -0.93549395 0 0 0 7.3054151e-38
0.14680815 -1.6475277 -0.82472086 0 0 0 7.3054151e-38
0.75296164 -0.68942451 -0.94074184 0 0 0 7.3054151e-38
0.72073221 0.96516228 -1.1489358 0 0 0 7.3054151e-38
0.26682186 -1.899188 -0.97960699 0 0 0 7.3054151e-38
0.76486397 -0.72137833 -1.1308242 0 0 0 7.3054151e-38
0.76956868 -0.73400784 -1.3221337 0 0 0 7.3054151e-38
0.26381016 -0.6610384 -0.36585587 0 0 0 7.3054151e-38
0.56418848 1.6067953 -0.51016629 0 0 0 7.3054151e-38
0.052575588 -1.3597193 -0.47289407 0 0 0 7.3054151e-38
0.58581686 -1.4294643 -0.52134275 0 0 0 7.3054151e-38
0.63073826 1.3984175 -0.73123676 0 0 0 7.3054151e-38
0.17196083 -1.6124182 -0.64311695 0 0 0 7.3054151e-38
0.6547761 -1.5940256 -0.69196057 0 0 0 7.3054151e-38
0.67995238 1.2435865 -0.94805986 0 0 0 7.3054151e-38
0.18430185 -1.6385851 -0.8240819 0 0 0 7.3054151e-38
0.74648356 -0.55582809 -0.95170861 0 0 0 7.3054151e-38
0.71955585 1.1195898 -1.1624677 0 0 0 7.3054151e-38
0.31017923 -1.9050751 -0.97727042 0 0 0 7.3054151e-38
0.89929271 -0.97070408 -1.1017388 0 0 0 7.3054151e-38
0.76445913 -0.60463142 -1.3370757 0 0 0 7.3054151e-38
0.29002953 -0.61762333 -0.36684006 0 0 0 7.3054151e-38
0.57234025 1.7414761 -0.51504266 0 0 0 7.3054151e-38
0.09195137 -1.352272 -0.47244811 0 0 0 7.3054151e-38
0.60999179 -1.3890886 -0.5227564 0 0 0 7.3054151e-38
0.62734842 1.5670328 -0.74036735 0 0 0 7.3054151e-38
0.19688749 -1.5764618 -0.64448607 0 0 0 7.3054151e-38
0.66536331 -1.5225964 -0.69618404 0 0 0 7.3054151e-38
0.68204665 1.3928232 -0.95855606 0 0 0 7.3054151e-38
0.23530197 -1.6586924 -0.82088715 0 0 0 7.3054151e-38
0.75729847 -0.4669838 -0.95856279 0 0 0 7.3054151e-38
0.72485137 1.2570896 -1.1743538 0 0 0 7.3054151e-38
0.3466959 -1.8967304 -0.97649157 0 0 0 7.3054151e-38
1.054986 -1.2844296 -1.0656399 0 0 0 7.3054151e-38
0.75820947 -0.46948528 -1.3527408 0 0 0 7.3054151e-38
0.32941341 -0.60569763 -0.36670884 0 0 0 7.3054151e-38
0.56776333 1.9201517 -0.52169937 0 0 0 7.3054151e-38
0.13803339 -1.3594904 -0.47128862 0 0 0 7.3054151e-38
0.62834144 -1.3339806 -0.52497792 0 0 0 7.3054151e-38
0.61683297 1.7625294 -0.7510761 0 0 0 7.3054151e-38
0.2463274 -1.5930996 -0.64224565 0 0 0 7.3054151e-38
0.47261 -0.95456982 -0.7370559 0 0 0 7.3054151e-38
0.66621041 1.6031466 -0.97378296 0 0 0 7.3054151e-38
0.23084211 -1.5596323 -0.82823503 0 0 0 7.3054151e-38
0.72222304 1.423233 -1.188983 0 0 0 7.3054151e-38
0.39408207 -1.9120169 -0.97318143 0 0 0 7.3054151e-38
1.0735559 -1.2248116 -1.0707968 0 0 0 7.3054151e-38
0.76836824 -0.37712002 -1.3628628 0 0 0 7.3054151e-38
0.36039686 -0.58871841 -0.36684006 0 0 0 7.3054151e-38
0.56937647 2.0587282 -0.52680802 0 0 0 7.3054151e-38
0.16148949 -1.3310814 -0.47200218 0 0 0 7.3054151e-38
0.60329485 1.9485579 -0.76133394 0 0 0 7.3054151e-38
0.2840414 -1.5977001 -0.64100099 0 0 0 7.3054151e-38
0.40626097 -0.70146465 -0.754767 0 0 0 7.3054151e-38
0.65751195 1.7716646 -0.98590535 0 0 0 7.3054151e-38
0.25534725 -1.5351706 -0.82919347 0 0 0 7.3054151e-38
0.65270925 0.05237484 -1.0036293 0 0 0 7.3054151e-38
0.71888971 1.5723133 -1.2021493 0 0 0 7.3054151e-38
0.42412806 -1.9025555 -0.97279203 0 0 0 7.3054151e-38
0.7694397 -0.27507973 -1.1741428 0 0 0 7.3054151e-38
0.76624084 -0.26610661 -1.375636 0 0 0 7.3054151e-38
0.36776495 -0.49732494 -0.3695302 0 0 0 7.3054151e-38
0.57870126 2.1995134 -0.53191662 0 0 0 7.3054151e-38
0.20831442 -1.3404484 -0.47075349 0 0 0 7.3054151e-38
0.59657311 2.1406975 -0.77181721 0 0 0 7.3054151e-38
0.32574749 -1.598403 -0.63988078 0 0 0 7.3054151e-38
0.43636799 -0.66775703 -0.75612944 0 0 0 7.3054151e-38
0.64382124 1.9843941 -1.0012801 0 0 0 7.3054151e-38
0.29562378 -1.5321188 -0.82807529 0 0 0 7.3054151e-38
0.65793109 0.16627216 -1.0127112 0 0 0 7.3054151e-38
0.71497917 1.7502308 -1.2178756 0 0 0 7.3054151e-38
0.46963596 -1.9145975 -0.96987128 0 0 0 7.3054151e-38
0.76426339 -0.13550568 -1.1879636 0 0 0 7.3054151e-38
0.37171221 -0.41176033 -0.37208909 0 0 0 7.3054151e-38
0.25245333 -1.3577538 -0.46923724 0 0 0 7.3054151e-38
0.62447524 2.1971064 -0.77440983 0 0 0 7.3054151e-38
0.36250067 -1.6014891 -0.63876063 0 0 0 7.3054151e-38
0.63107252 2.1743164 -1.0150287 0 0 0 7.3054151e-38
0.37680864 -1.6332378 -0.81801188 0 0 0 7.3054151e-38
0.67709351 0.2236681 -1.0168236 0 0 0 7.3054151e-38
0.71246052 1.9034309 -1.2314075 0 0 0 7.3054151e-38
0.50455618 -1.9162731 -0.96831357 0 0 0 7.3054151e-38
0.76415753 -0.025924683 -1.1986902 0 0 0 7.3054151e-38
0.37217569 -0.29975033 -0.37550095 0 0 0 7.3054151e-38
0.28597784 -1.3383389 -0.46941561 0 0 0 7.3054151e-38
0.39513254 -1.5824795 -0.63900954 0 0 0 7.3054151e-38
0.67520046 2.2020559 -1.0160635 0 0 0 7.3054151e-38
0.41663885 -1.6306696 -0.81689376 0 0 0 7.3054151e-38
0.7342751 0.19077015 -1.0125397 0 0 0 7.3054151e-38
0.71427679 2.0702467 -1.2460366 0 0 0 7.3054151e-38
0.53684902 -1.8996105 -0.9685083 0 0 0 7.3054151e-38
0.76788259 0.093277931 -1.2102418 0 0 0 7.3054151e-38
0.3923049 -0.23601723 -0.37720686 0 0 0 7.3054151e-38
0.33654642 -1.357419 -0.46772096 0 0 0 7.3054151e-38
0.5697279 -0.69047356 -0.55628067 0 0 0 7.3054151e-38
0.43510866 -1.5800152 -0.63813829 0 0 0 7.3054151e-38
0.67804646 2.3713102 -1.028038 0 0 0 7.3054151e-38
0.40808392 -1.518857 -0.82535982 0 0 0 7.3054151e-38
0.72948384 0.33868217 -1.024706 0 0 0 7.3054151e-38
0.70943737 2.2639818 -1.2632259 0 0 0 7.3054151e-38
0.59334469 -1.9376822 -0.9628616 0 0 0 7.3054151e-38
0.76409245 0.23707771 -1.224475 0 0 0 7.3054151e-38
0.38413191 -0.11480904 -0.38101241 0 0 0 7.3054151e-38
0.36106157 -1.3313513 -0.46834531 0 0 0 7.3054151e-38
0.60915613 -0.69658184 -0.55527091 0 0 0 7.3054151e-38
0.46373606 -1.565238 -0.63826275 0 0 0 7.3054151e-38
0.58020043 -0.62172031 -0.75544822 0 0 0 7.3054151e-38
0.38490105 -1.3853054 -0.83590239 0 0 0 7.3054151e-38
0.72801805 0.46021461 -1.0346447 0 0 0 7.3054151e-38
0.59528947 -1.8650637 -0.96928716 0 0 0 7.3054151e-38
0.76681733 0.34512424 -1.2349954 0 0 0 7.3054151e-38
0.39098358 -0.013654709 -0.38403058 0 0 0 7.3054151e-38
0.40426207 -1.3343134 -0.46745339 0 0 0 7.3054151e-38
0.62032175 -0.61310101 -0.55900705 0 0 0 7.3054151e-38
0.5013051 -1.5575705 -0.63776487 0 0 0 7.3054151e-38
0.66653252 -0.73388672 -0.74618393 0 0 0 7.3054151e-38
0.31919622 -1.1377478 -0.85618901 0 0 0 7.3054151e-38
0.72827506 0.59900188 -1.0459541 0 0 0 7.3054151e-38
0.62699676 -1.8468981 -0.96967661 0 0 0 7.3054151e-38
0.75980687 0.50432396 -1.2508788 0 0 0 7.3054151e-38
0.40983963 0.057682037 -0.38599896 0 0 0 7.3054151e-38
0.45132637 -1.3466415 -0.4661155 0 0 0 7.3054151e-38
0.62497759 -0.51088428 -0.56375295 0 0 0 7.3054151e-38
0.54990149 -1.5757303 -0.63552451 0 0 0 7.3054151e-38
0.67713547 -0.64872646 -0.75136101 0 0 0 7.3054151e-38
0.52428436 -1.5160751 -0.82184559 0 0 0 7.3054151e-38
0.74008441 0.70576 -1.0543505 0 0 0 7.3054151e-38
0.67135 -1.8581076 -0.9669506 0 0 0 7.3054151e-38
0.76634645 0.62593079 -1.2626368 0 0 0 7.3054151e-38
0.40512705 0.1755209 -0.38967326 0 0 0 7.3054151e-38
0.48383617 -1.3392601 -0.46584794 0 0 0 7.3054151e-38
0.48082733 -1.331727 -0.65120721 0 0 0 7.3054151e-38
0.67027259 -0.53190994 -0.75899047 0 0 0 7.3054151e-38
0.54220009 -1.4758921 -0.82424164 0 0 0 7.3054151e-38
0.74338794 0.82005882 -1.0636038 0 0 0 7.3054151e-38
0.68898892 -1.8202591 -0.96967661 0 0 0 7.3054151e-38
0.75344515 0.78916073 -1.2791392 0 0 0 7.3054151e-38
0.41185999 0.28255939 -0.39288828 0 0 0 7.3054151e-38
0.52603865 -1.3409128 -0.46504521 0 0 0 7.3054151e-38
0.61831737 -0.27449131 -0.57506233 0 0 0 7.3054151e-38
0.52847624 -1.3462305 -0.64921576 0 0 0 7.3054151e-38
0.67446208 -1.6926699 -0.80411482 0 0 0 7.3054151e-38
0.73285699 1.0009508 -1.078683 0 0 0 7.3054151e-38
0.71703339 -1.7932501 -0.97103959 0 0 0 7.3054151e-38
0.75445724 0.93375397 -1.2933724 0 0 0 7.3054151e-38
0.4120121 0.39127445 -0.39623451 0 0 0 7.3054151e-38
0.55467749 -1.324564 -0.46522361 0 0 0 7.3054151e-38
0.6160562 -0.16461849 -0.58031315 0 0 0 7.3054151e-38
0.64249825 -1.5343428 -0.63564897 0 0 0 7.3054151e-38
0.66833377 -0.30704212 -0.77343184 0 0 0 7.3054151e-38
0.68816805 -1.6436806 -0.80730957 0 0 0 7.3054151e-38
0.73657727 1.1192923 -1.0882789 0 0 0 7.3054151e-38
0.71663904 -1.7113905 -0.97843874 0 0 0 7.3054151e-38
0.75500822 1.0613308 -1.3059555 0 0 0 7.3054151e-38
0.39970446 0.55488586 -0.40141791 0 0 0 7.3054151e-38
0.58231688 -1.291441 -0.4661155 0 0 0 7.3054151e-38
0.61605883 -0.041290283 -0.58616978 0 0 0 7.3054151e-38
0.65793681 -1.4738874 -0.63876063 0 0 0 7.3054151e-38
0.67602372 -0.20652676 -0.77969885 0 0 0 7.3054151e-38
0.47321558 -1.0270491 -0.85954344 0 0 0 7.3054151e-38
0.73305583 1.2853594 -1.1019874 0 0 0 7.3054151e-38
0.73072219 -1.6494951 -0.98350132 0 0 0 7.3054151e-38
0.75194955 1.2251797 -1.3222516 0 0 0 7.3054151e-38
0.4182415 0.635952 -0.40371436 0 0 0 7.3054151e-38
0.61922407 -1.2805834 -0.46593714 0 0 0 7.3054151e-38
0.61151671 0.097221375 -0.59283423 0 0 0 7.3054151e-38
0.49841356 -0.98480129 -0.67074841 0 0 0 7.3054151e-38
0.678334 -0.089022636 -0.78719205 0 0 0 7.3054151e-38
0.78058028 -1.674509 -0.80219799 0 0 0 7.3054151e-38
0.74190903 1.4154491 -1.1124401 0 0 0 7.3054151e-38
0.74068546 -1.5765266 -0.98973215 0 0 0 7.3054151e-38
0.74945211 1.3911104 -1.3387539 0 0 0 7.3054151e-38
0.41983891 0.74689102 -0.40712622 0 0 0 7.3054151e-38
0.62031269 -1.196002 -0.46941561 0 0 0 7.3054151e-38
0.59205699 0.26206875 -0.60101336 0 0 0 7.3054151e-38
0.47495985 -0.8370142 -0.67983449 0 0 0 7.3054151e-38
0.65968132 0.071694374 -0.79795498 0 0 0 7.3054151e-38
0.81120849 -1.6663399 -0.80187851 0 0 0 7.3054151e-38
0.73111296 1.5893583 -1.1270053 0 0 0 7.3054151e-38
0.73871255 -1.4870625 -0.99791014 0 0 0 7.3054151e-38
0.74565768 1.5419035 -1.3538123 0 0 0 7.3054151e-38
0.42760897 0.86198997 -0.41060367 0 0 0 7.3054151e-38
0.62555337 -1.1055574 -0.47307247 0 0 0 7.3054151e-38
0.59807467 0.3764658 -0.60636514 0 0 0 7.3054151e-38
0.45256138 -0.6738596 -0.68979174 0 0 0 7.3054151e-38
0.65974975 0.20080185 -0.80626559 0 0 0 7.3054151e-38
0.84968066 -1.663722 -0.80092007 0 0 0 7.3054151e-38
0.73090982 1.7559347 -1.1407137 0 0 0 7.3054151e-38
0.74819088 -1.4102659 -1.0045304 0 0 0 7.3054151e-38
0.73844528 1.7310219 -1.37279 0 0 0 7.3054151e-38
0.44075394 0.96396923 -0.41362187 0 0 0 7.3054151e-38
0.63066721 -1.0131645 -0.4768185 0 0 0 7.3054151e-38
0.59374666 0.52304935 -0.61343348 0 0 0 7.3054151e-38
0.65286326 0.35267639 -0.81621104 0 0 0 7.3054151e-38
0.88223743 -1.6464367 -0.80123955 0 0 0 7.3054151e-38
0.73814583 1.9016743 -1.1525372 0 0 0 7.3054151e-38
0.74716592 -1.3056622 -1.0140715 0 0 0 7.3054151e-38
0.74337959 1.884141 -1.3878485 0 0 0 7.3054151e-38
0.43012381 1.116786 -0.41847721 0 0 0 7.3054151e-38
0.61945844 -0.89299107 -0.48199162 0 0 0 7.3054151e-38
0.57527757 0.69417572 -0.62191552 0 0 0 7.3054151e-38
0.65076828 0.47438622 -0.82411295 0 0 0 7.3054151e-38
0.90634727 -1.6219053 -0.80235767 0 0 0 7.3054151e-38
0.73508763 2.0608149 -1.1657317 0 0 0 7.3054151e-38
0.74685693 -1.2158947 -1.0222495 0 0 0 7.3054151e-38
0.43901348 1.2359924 -0.42208588 0 0 0 7.3054151e-38
0.61791348 -0.77988625 -0.48671877 0 0 0 7.3054151e-38
0.60254312 0.7541399 -0.62433898 0 0 0 7.3054151e-38
0.62145472 0.69841576 -0.83923554 0 0 0 7.3054151e-38
0.94125056 -1.6103916 -0.80219799 0 0 0 7.3054151e-38
0.73876953 2.225934 -1.1792687 0 0 0 7.3054151e-38
0.74644065 -1.10919 -1.0319852 0 0 0 7.3054151e-38
0.43283558 1.4026747 -0.4273349 0 0 0 7.3054151e-38
0.6214509 -0.67782402 -0.4909108 0 0 0 7.3054151e-38
0.61675668 -0.66509247 -0.68655562 0 0 0 7.3054151e-38
0.65589547 0.73740768 -0.84100664 0 0 0 7.3054151e-38
0.62459874 -0.68546867 -0.88046896 0 0 0 7.3054151e-38
0.74389577 -0.99492073 -1.0424997 0 0 0 7.3054151e-38
0.44078875 1.5085812 -0.43054992 0 0 0 7.3054151e-38
0.62096906 -0.57958698 -0.49501359 0 0 0 7.3054151e-38
0.6042397 1.0159664 -0.63686007 0 0 0 7.3054151e-38
0.66825891 -0.70307827 -0.68319505 0 0 0 7.3054151e-38
0.7460885 -0.90668869 -1.050483 0 0 0 7.3054151e-38
0.43602037 1.6774979 -0.43586454 0 0 0 7.3054151e-38
0.62372327 -0.47170162 -0.49947318 0 0 0 7.3054151e-38
0.60018992 1.1765814 -0.64463532 0 0 0 7.3054151e-38
0.67411637 -0.60479164 -0.68879604 0 0 0 7.3054151e-38
0.66277003 0.98563862 -0.85694665 0 0 0 7.3054151e-38
0.72474217 -0.73905277 -0.8736003 0 0 0 7.3054151e-38
0.73794723 -0.77353477 -1.0629447 0 0 0 7.3054151e-38
0.42820644 1.8368397 -0.44091672 0 0 0 7.3054151e-38
0.60280228 -0.31522846 -0.50634092 0 0 0 7.3054151e-38
0.5933013 1.3277025 -0.65200663 0 0 0 7.3054151e-38
0.68006825 -0.52153969 -0.69352573 0 0 0 7.3054151e-38
0.65286636 1.1440077 -0.86743712 0 0 0 7.3054151e-38
0.71286726 -0.60935879 -0.88366371 0 0 0 7.3054151e-38
0.95027637 -1.2444983 -1.0125138 0 0 0 7.3054151e-38
0.45921755 1.9014359 -0.44262263 0 0 0 7.3054151e-38
0.6106236 -0.21641159 -0.51035458 0 0 0 7.3054151e-38
0.58103466 1.5210171 -0.66149843 0 0 0 7.3054151e-38
0.65093923 1.3027134 -0.87779135 0 0 0 7.3054151e-38
0.71967983 -0.51112843 -0.89085186 0 0 0 7.3054151e-38
1.0030792 -1.2779722 -1.0076458 0 0 0 7.3054151e-38
0.53822708 -1.2332964 -0.28279924 0 0 0 7.3054151e-38
0.47919703 2.0021887 -0.44557521 0 0 0 7.3054151e-38
0.60678005 -0.08372879 -0.51597363 0 0 0 7.3054151e-38
0.57976723 1.6841116 -0.66937459 0 0 0 7.3054151e-38
0.68328977 -0.29266644 -0.70684361 0 0 0 7.3054151e-38
0.64290524 1.4844227 -0.8897804 0 0 0 7.3054151e-38
1.0316925 -1.2462597 -1.009593 0 0 0 7.3054151e-38
0.50402975 2.0896101 -0.44806847 0 0 0 7.3054151e-38
0.61403346 0.020936012 -0.52025485 0 0 0 7.3054151e-38
0.57369041 1.8664484 -0.67826056 0 0 0 7.3054151e-38
0.68167567 -0.16583538 -0.7143116 0 0 0 7.3054151e-38
0.63971853 1.6549253 -0.90095204 0 0 0 7.3054151e-38
0.61887693 0.0081176758 -0.9327029 0 0 0 7.3054151e-38
0.74283671 -0.33467293 -1.1030558 0 0 0 7.3054151e-38
0.60746408 0.14808083 -0.5256955 0 0 0 7.3054151e-38
0.55266953 2.0774364 -0.68876213 0 0 0 7.3054151e-38
0.67657542 -0.04464817 -0.72153062 0 0 0 7.3054151e-38
0.62751389 1.8349934 -0.9129411 0 0 0 7.3054151e-38
0.61303043 0.13311958 -0.94228709 0 0 0 7.3054151e-38
0.73798776 -0.21585846 -1.1141545 0 0 0 7.3054151e-38
0.60952544 0.27179909 -0.53086865 0 0 0 7.3054151e-38
0.57537651 2.1742401 -0.69310415 0 0 0 7.3054151e-38
0.66932321 0.10318279 -0.73036772 0 0 0 7.3054151e-38
0.59119964 2.1223097 -0.93242335 0 0 0 7.3054151e-38
0.62774301 0.22086239 -0.94851685 0 0 0 7.3054151e-38
0.73952627 -0.094902039 -1.1252532 0 0 0 7.3054151e-38
0.60452628 0.39923382 -0.53630936 0 0 0 7.3054151e-38
0.59758449 2.2498436 -0.69643635 0 0 0 7.3054151e-38
0.66449308 0.22843838 -0.73783571 0 0 0 7.3054151e-38
0.63053203 2.1404819 -0.93283212 0 0 0 7.3054151e-38
0.69969082 0.12781715 -0.93957156 0 0 0 7.3054151e-38
0.73352957 0.031694412 -1.1371307 0 0 0 7.3054151e-38
0.60302997 0.53832817 -0.54219598 0 0 0 7.3054151e-38
0.65523934 0.38794994 -0.7474196 0 0 0 7.3054151e-38
0.64382076 2.2715092 -0.94114274 0 0 0 7.3054151e-38
0.67514992 0.33035374 -0.95554525 0 0 0 7.3054151e-38
0.73605418 0.15480137 -1.1484241 0 0 0 7.3054151e-38
0.60379243 0.67380333 -0.54790425 0 0 0 7.3054151e-38
0.66129875 0.50611973 -0.75426525 0 0 0 7.3054151e-38
0.69715405 0.40115643 -0.96033734 0 0 0 7.3054151e-38
0.73621321 0.28745461 -1.1606911 0 0 0 7.3054151e-38
0.60254312 0.79788303 -0.55316657 0 0 0 7.3054151e-38
0.63142967 0.71311855 -0.76708525 0 0 0 7.3054151e-38
0.6849165 0.55491638 -0.97231758 0 0 0 7.3054151e-38
0.72752023 0.42955875 -1.1741265 0 0 0 7.3054151e-38
0.66594934 0.75209427 -0.76870334 0 0 0 7.3054151e-38
0.68286562 0.70144939 -0.98349917 0 0 0 7.3054151e-38
0.72823381 0.5662899 -1.1867828 0 0 0 7.3054151e-38
0.59917116 1.0979881 -0.56592095 0 0 0 7.3054151e-38
0.70744824 0.77052689 -0.98813152 0 0 0 7.3054151e-38
0.72989845 0.70316696 -1.1994393 0 0 0 7.3054151e-38
0.59174442 1.2490597 -0.57243198 0 0 0 7.3054151e-38
0.66509819 1.0250912 -0.78488392 0 0 0 7.3054151e-38
0.7201705 0.85709572 -1.2140429 0 0 0 7.3054151e-38
0.59353018 1.396678 -0.57867539 0 0 0 7.3054151e-38
0.66610503 1.1723166 -0.79359657 0 0 0 7.3054151e-38
0.72557068 0.98859024 -1.2261151 0 0 0 7.3054151e-38
0.57402182 1.5918531 -0.58723778 0 0 0 7.3054151e-38
0.65565491 1.3366642 -0.80355388 0 0 0 7.3054151e-38
0.71952081 1.1371527 -1.2401346 0 0 0 7.3054151e-38
0.5701685 1.7645969 -0.59464067 0 0 0 7.3054151e-38
0.64731812 1.5203857 -0.81463134 0 0 0 7.3054151e-38
0.68159986 1.4115257 -1.03765 0 0 0 7.3054151e-38
0.72375846 1.2783966 -1.2531804 0 0 0 7.3054151e-38
0.57286739 1.9203634 -0.60124087 0 0 0 7.3054151e-38
0.64797997 1.6795511 -0.82409078 0 0 0 7.3054151e-38
0.59965158 1.8350019 -1.0719934 0 0 0 7.3054151e-38
0.72484422 1.433075 -1.2675893 0 0 0 7.3054151e-38
0.56572914 2.087554 -0.60846537 0 0 0 7.3054151e-38
0.62722707 1.8883371 -0.83691084 0 0 0 7.3054151e-38
0.66968727 1.7502327 -1.0638467 0 0 0 7.3054151e-38
0.71109414 1.616334 -1.2851136 0 0 0 7.3054151e-38
0.58449841 2.1977444 -0.61292493 0 0 0 7.3054151e-38
0.60472202 2.1319227 -0.85184675 0 0 0 7.3054151e-38
0.6768651 1.8941727 -1.0747088 0 0 0 7.3054151e-38
0.71553278 1.7675409 -1.2991329 0 0 0 7.3054151e-38
0.64808226 2.1616707 -0.85284251 0 0 0 7.3054151e-38
0.68962121 2.0229511 -1.084293 0 0 0 7.3054151e-38
0.71189332 1.9493914 -1.3162678 0 0 0 7.3054151e-38
0.65356898 2.2945166 -0.86068386 0 0 0 7.3054151e-38
0.68622875 2.1841888 -1.0967525 0 0 0 7.3054151e-38
0.70495129 2.1217794 -1.3326238 0 0 0 7.3054151e-38
0.68406224 2.3705711 -1.1111288 0 0 0 7.3054151e-38
0.70765924 2.2906303 -1.3483957 0 0 0 7.3054151e-38
