# .PCD v0.7 - Point Cloud Data file format
VERSION 0.7
FIELDS x y z
SIZE 4 4 4
TYPE F F F
COUNT 1 1 1
WIDTH 887
HEIGHT 1
VIEWPOINT 0 0 0 1 0 0 0
POINTS 887
DATA ascii
-5.5893235 9.2790689 -0.99459839
-5.5328059 9.261878 -0.99057537
-5.4775052 9.2461109 -0.98673522
-5.3979449 9.1774387 -0.97759199
-5.377316 9.2195263 -0.9799692
-5.3573079 9.2518854 -0.98161501
-5.3698616 9.3524456 -0.79933876
-5.3375211 9.3755312 -0.79963446
-5.1898246 9.1160975 -0.96314573
-5.1601801 9.1306229 -0.96296287
-5.3360872 9.5235891 -0.61625886
-5.1549125 9.1998606 -0.96826589
-5.11729 9.211729 -0.96753448
-5.2740316 9.5649357 -0.61659706
-5.0652447 9.1859026 -0.96314573
-5.2044597 9.5211248 -0.61253899
-5.0047946 9.1554747 -0.95802552
-5.3168817 8.7895975 -1.2469412
-5.1305237 9.4681549 -0.60791737
-5.6134248 9.3570976 -0.93834287
-4.9882841 9.2052755 -0.96131706
-5.265224 8.7766771 -1.2423621
-5.0969701 9.4771919 -0.60746646
-5.5330148 9.2890892 -0.92977506
-4.9319825 9.1700344 -0.95601404
-5.3538079 8.9882269 -1.0848238
-5.2203526 8.7641773 -1.2382652
-5.04811 9.4693785 -0.60577559
-4.947711 9.2806578 -0.77952898
-5.478663 9.274992 -0.92634797
-4.8964658 9.1845341 -0.9556483
-5.3066635 8.9838095 -1.081936
-5.1609316 8.7370958 -1.2317581
-5.0052624 9.4604807 -0.6041975
-5.0649767 9.5729427 -0.80273896
-5.4454656 9.2852831 -0.92566258
-4.9150896 9.2896519 -0.96497434
-5.2623119 8.9729805 -1.0786355
-5.111361 8.7155886 -1.226456
-5.1937752 9.9044409 -0.43314981
-5.1291299 9.7811632 -0.62347317
-5.3725901 10.245003 -0.85743755
-5.3593059 9.2156067 -0.91675204
-4.8486347 9.2458715 -0.95857412
-5.2163882 8.9698524 -1.0759538
-5.0634131 8.7068033 -1.2226001
-5.1297898 9.8702116 -0.43082771
-5.2847834 10.168434 -0.64691967
-5.3294854 10.254007 -0.85655057
-5.3444061 9.2679853 -0.92000782
-5.2794695 10.157776 -1.0511034
-5.1814895 8.9854641 -1.0755413
-5.0304751 8.7235832 -1.2223591
-5.0676107 9.8258877 -0.42819598
-5.3214588 10.318089 -0.65537393
-5.3658147 10.403647 -0.86763811
-5.3182335 9.2899179 -0.92052186
-4.7262478 9.1636066 -0.94668794
-5.1364336 8.9723482 -1.0720345
-4.9764113 8.6928215 -1.215852
-5.0297441 9.8408365 -0.42804119
-5.3208652 10.410423 -0.65999556
-5.2650123 10.300701 -0.85743755
-4.672688 9.1418524 -0.94266492
-5.0946755 8.975544 -1.070178
-4.9386368 8.7006426 -1.214406
-4.9274702 8.6809692 -1.3881279
-4.9737754 9.8199825 -0.42633832
-5.1956792 10.257654 -0.85226339
-4.6382504 9.1571407 -0.94248205
-5.0471091 8.9681511 -1.0670838
-4.8794494 8.6702375 -1.2076579
-4.867445 8.6489077 -1.3801391
-4.910594 9.7712746 -0.4235518
-5.1553674 10.257887 -0.85093284
-4.5906782 9.1342974 -0.93864191
-5.0072675 8.9631224 -1.0646085
-4.8492818 8.6803246 -1.2069349
-4.8576398 8.6952848 -1.3850976
-4.8524761 9.744483 -0.4216167
-5.1132903 10.267787 -0.85019368
-4.553617 9.1439304 -0.93791044
-4.9705272 8.9744539 -1.0637834
-4.8049288 8.6754608 -1.203802
-4.8170991 8.6974344 -1.3826183
-4.7990427 9.7263584 -0.42006862
-4.5787392 9.2794552 -0.76696312
-4.5050907 9.1301966 -0.93480176
-4.9251537 8.969943 -1.0611017
-4.762588 8.6738701 -1.2011509
-4.723217 8.6021652 -1.3647124
-4.7552829 9.7144623 -0.41890758
-4.6968527 9.5950966 -0.60307026
-4.6889977 9.5786276 -0.79046875
-4.479012 9.1496706 -0.93535036
-4.8931417 8.978384 -1.0602766
-4.7267642 8.6730995 -1.1989819
-4.742619 8.7021914 -1.3782108
-4.7091808 9.710248 -0.41797873
-4.6320281 9.5511599 -0.59923762
-4.9967842 10.302823 -0.84871536
-4.4411011 9.1570654 -0.93443602
-4.8526368 8.9822559 -1.0586264
-4.6855068 8.6728973 -1.1965719
-4.6297169 8.5696297 -1.3545197
-4.6640391 9.7076273 -0.41712731
-4.5866132 9.5464745 -0.59788495
-4.9468956 10.295898 -0.84664565
-4.8738017 9.1010399 -0.887793
-4.4049215 9.1678963 -0.93388742
-4.8018389 8.9666615 -1.0547071
-4.6340041 8.6532564 -1.1915109
-4.5982766 8.5865412 -1.3545197
-4.6240606 9.7023869 -0.41627586
-4.5351224 9.5157728 -0.59506691
-4.9938803 9.3960772 -0.91503853
-4.3623881 9.1529236 -0.93096161
-4.7717786 8.9781895 -1.0542945
-4.6058645 8.6660194 -1.1912699
-4.5842943 8.6254339 -1.3583764
-4.5884686 9.7192698 -0.41627586
-4.4959521 9.5233021 -0.59450328
-5.3606186 10.175925 -0.9890641
-4.3330631 9.1778564 -0.93187594
-4.7230778 8.9656973 -1.0507877
-4.5574145 8.6512232 -1.1869318
-4.5877337 8.7087774 -1.3688445
-4.5375719 9.6901999 -0.41441819
-4.4228253 9.4451523 -0.58875436
-4.3443236 9.2770872 -0.75927573
-5.0544376 9.6682472 -0.93817151
-4.2940731 9.1697798 -0.9296816
-4.6893578 8.9699135 -1.0495501
-4.5292935 8.6637392 -1.1866908
-4.5006976 8.6090393 -1.3509386
-4.5045476 9.7122049 -0.41465038
-4.3856568 9.4558649 -0.58841622
-5.3850737 9.3626604 -0.73746461
-4.3027391 9.2766628 -0.75794524
-5.2948966 10.219255 -0.98974949
-4.252893 9.1691961 -0.9280358
-4.6537046 8.9817419 -1.0489312
-4.497509 8.6802816 -1.1866908
-4.5411077 8.7644272 -1.3727012
-4.4505677 9.6886959 -0.41294751
-4.3451352 9.4591742 -0.58762711
-5.3260093 9.3390026 -0.73405862
-4.2762027 9.3086834 -0.75927573
-5.2401114 10.204914 -0.98649377
-4.2084498 9.1611948 -0.92565858
-4.6080317 8.9739628 -1.0460433
-4.4511533 8.6684484 -1.1828349
-4.4890471 8.7422447 -1.3666407
-4.4176221 9.6971741 -0.41271529
-4.2996683 9.4382524 -0.5854854
-5.3330164 9.4199352 -0.7390995
-4.2394958 9.3057356 -0.75794524
-5.2071214 10.21955 -0.9863224
-4.1755199 9.165309 -0.92474425
-4.5671725 8.9635801 -1.0431554
-4.4266028 8.6876965 -1.1835579
-4.4399762 8.7139435 -1.3600292
-4.3804069 9.7096567 -0.41256049
-4.2773638 9.4812508 -0.58717626
-5.3072448 9.4550781 -0.74032563
-4.1971574 9.303031 -0.75646687
-4.6765571 9.2620249 -0.89224821
-4.1394424 9.1751051 -0.92419565
-4.5289087 8.9696045 -1.0419177
-4.3857822 8.6861391 -1.1811478
-4.4089012 8.7319269 -1.3603047
-4.3350077 9.7037497 -0.41163164
-5.3295698 9.5769196 -0.55405921
-4.2222228 9.4512854 -0.58435816
-4.1719813 9.3383837 -0.75809306
-4.6283131 9.2505903 -0.88950652
-4.1017241 9.1811228 -0.92328131
-4.4951129 8.9843645 -1.0417114
-4.3530283 8.7003794 -1.1809068
-4.3786402 8.7515707 -1.3608557
-4.2980261 9.7027035 -0.41101241
-5.286901 9.5708857 -0.55274647
-4.1997886 9.4809341 -0.58537269
-4.1482782 9.3642092 -0.75912791
-4.5956845 9.257946 -0.88882113
-4.067214 9.1812172 -0.9220013
-4.4668655 8.9984417 -1.0417114
-4.3194942 8.7015638 -1.1792198
-4.3396745 8.7422171 -1.3572745
-4.2640405 9.7220516 -0.41116723
-5.2393141 9.5674238 -0.5514338
-4.1505742 9.4633474 -0.58334363
-4.1131277 9.3775244 -0.7589801
-5.645134 9.3138847 -0.87264186
-4.545012 9.2407541 -0.88556534
-4.033536 9.1960621 -0.9220013
-4.4101491 8.9665556 -1.0361419
-4.2849436 8.7119923 -1.1784968
-4.297112 8.7367325 -1.3539687
-4.2188263 9.7156172 -0.41023839
-5.1775293 9.5374098 -0.54860646
-4.1087036 9.4620123 -0.58232915
-4.210609 9.6962299 -0.78352052
-5.5852818 9.2917948 -0.86864847
-4.5050025 9.2448111 -0.88436586
-3.9894905 9.1870356 -0.91962403
-4.3789983 8.9862356 -1.0365545
-4.2521138 8.7258539 -1.1782558
-4.2095246 8.6384554 -1.3363383
-4.1938148 9.7416725 -0.41078022
-5.130487 9.5219765 -0.54678887
-4.081326 9.4803753 -0.58266729
-4.3370786 10.073971 -0.81293952
-5.5243902 9.2562275 -0.86369663
-4.4611931 9.2284203 -0.8814528
-3.9669094 9.2141581 -0.92108697
-5.4135971 9.0709515 -1.0333481
-4.3351607 8.9677095 -1.0328414
-4.2203593 8.7302313 -1.1770508
-4.1780543 8.6427202 -1.3349608
-4.1525974 9.7441082 -0.41023839
-5.0936708 9.5371923 -0.54658693
-4.0402884 9.4805756 -0.58176553
-4.9614253 9.2895823 -0.71907228
-4.2915249 10.069616 -0.81131333
-5.4914427 9.2781286 -0.86385638
-4.4161506 9.2213459 -0.87922519
-3.9018774 9.1553488 -0.9137724
-5.3732176 9.0787411 -1.0319852
-4.304841 8.9889212 -1.0334603
-4.183188 8.7348976 -1.1756048
-4.2019649 8.774106 -1.3528669
-4.1242981 9.7626286 -0.4104706
-5.0524578 9.5319691 -0.54537523
-4.1418104 9.8040829 -0.60081577
-5.0948176 9.6118851 -0.74277794
-5.4673176 9.3039284 -0.86465502
-4.3880143 9.2369747 -0.87939656
-3.8769712 9.1767349 -0.91468674
-5.320467 9.05439 -1.027312
-4.2663369 8.9808388 -1.0309849
-4.1599855 8.7569628 -1.1768098
-4.2092295 8.8606243 -1.3641614
-4.0938854 9.7905865 -0.41101241
-4.9961209 9.5097532 -0.54305273
-4.0003138 9.5668087 -0.58537269
-5.3676558 10.216944 -0.78800946
-3.8958571 9.3165417 -0.74848384
-5.3799829 9.2326126 -0.85618901
-4.3456454 9.2349653 -0.87768298
-3.8556044 9.2202816 -0.91761255
-5.2672029 9.0394325 -1.0234177
-4.2300038 8.9892149 -1.0301598
-4.1084185 8.7308321 -1.1712668
-4.1261191 8.7684488 -1.3476328
-4.057209 9.8036785 -0.41093501
-4.9658446 9.5368595 -0.54355764
-3.9339163 9.5057583 -0.580751
-5.3596621 10.293182 -0.79236913
-3.8838031 9.384203 -0.75277102
-5.3650584 9.2850666 -0.85922396
-4.3067174 9.239994 -0.87665486
-3.8408248 9.2803574 -0.92218417
-5.2290573 9.0500593 -1.0224441
-4.1945071 8.9992495 -1.029541
-4.0872946 8.7692261 -1.1743997
-4.0906057 8.7763309 -1.3465309
-4.0195646 9.7997351 -0.41023839
-5.3182211 10.292401 -0.58566493
-3.9229782 9.5642567 -0.58356911
-5.3712654 10.395059 -0.79890865
-4.1237707 10.053291 -0.80539995
-4.2734871 9.2444344 -0.87579811
-3.7950227 9.2518406 -0.91816115
-5.1698971 9.0129175 -1.016408
-4.1595364 8.9979362 -1.0278907
-4.0480618 8.756793 -1.1710258
-4.032259 8.7226086 -1.3363383
-4.0016584 9.8588448 -0.41209608
-5.3186998 10.386497 -0.58990592
-4.0688868 10.024473 -0.61073542
-5.3666401 9.4354877 -0.67684728
-4.0891461 10.073882 -0.80584347
-5.2416091 9.215661 -0.84948003
-4.2329397 9.2455416 -0.87442726
-3.7625856 9.2693787 -0.91852683
-5.1338763 9.0266151 -1.0158238
-4.1223888 9.004077 -1.0268593
-4.0192451 8.7787924 -1.1719898
-3.9920156 8.7193174 -1.3335835
-3.9945457 9.9457712 -0.41511482
-5.3202553 9.4342299 -0.67535365
-5.2344241 10.314936 -0.78978056
-4.0440187 10.068443 -0.80421728
-5.1882114 9.2000809 -0.84628528
-4.1949105 9.2519197 -0.87357044
-3.727844 9.2812586 -0.91834402
-5.083159 9.0141621 -1.012319
-4.0901814 9.0209379 -1.0270656
-3.9878621 8.7952728 -1.1722307
-3.9952056 8.8114691 -1.3454289
-3.9921017 10.030688 -0.41813356
-4.7834563 9.5001011 -0.53770095
-5.3081412 9.4822493 -0.67759407
-5.1777644 10.28321 -0.78610212
-4.0057302 10.06442 -0.80288678
-5.1398067 9.1815424 -0.84309059
-4.1543841 9.2396097 -0.87117147
-3.7089787 9.3188305 -0.9209041
-5.0460644 9.0144548 -1.0105666
-4.0528474 9.0137854 -1.0247965
-3.9577689 8.8023252 -1.1715077
-3.9691286 8.82759 -1.3459799
-3.9867949 10.125213 -0.42146188
-4.7494965 9.5193567 -0.53780192
-5.285944 9.5243301 -0.67921215
-5.1320224 10.286049 -0.78487599
-4.0009689 10.16069 -0.8093915
-5.1041851 9.1968327 -0.84277111
-4.123733 9.2620554 -0.87185693
-3.6616638 9.2990055 -0.91761255
-5.0023661 9.0137444 -1.0084248
-4.0238285 9.0376654 -1.0258279
-3.9279027 8.8222132 -1.1722307
-3.983479 8.9470396 -1.3619576
-4.9359736 9.9845505 -0.36559343
-3.9808486 10.219832 -0.42479023
-5.3370385 9.6996136 -0.49421087
-4.6968703 9.5008888 -0.5357824
-5.0872135 10.29048 -0.78378606
-5.0454559 9.1700659 -0.83861792
-4.0833278 9.2625208 -0.87048608
-3.6347859 9.3309221 -0.91944116
-4.9577813 9.0110903 -1.0060881
-3.9794421 9.0268688 -1.02294
-3.8995459 8.8456335 -1.1734358
-3.9003177 8.8473845 -1.3446026
-4.9089832 10.008982 -0.3659215
-3.9861374 10.329242 -0.42881522
-5.2624865 9.6356697 -0.49010807
-4.6749153 9.5317383 -0.53669119
-3.9619365 10.26653 -0.62121874
-5.0416803 10.279539 -0.78174245
-3.9769568 10.304917 -0.81870502
-5.0137558 9.1806221 -0.83813876
-4.0454302 9.2552185 -0.86860114
-3.7832885 9.803092 -0.96479148
-4.9179993 9.0056572 -1.0037515
-3.94469 9.024744 -1.0212898
-3.8725324 8.8596601 -1.1736767
-3.8653631 8.8432579 -1.3421233
-4.860908 10.003533 -0.36506853
-3.9845986 10.439005 -0.4327628
-5.2176223 9.6373224 -0.48921615
-4.6495514 9.5685711 -0.53780192
-3.923569 10.279117 -0.62110597
-3.9128428 10.250479 -0.81323516
-4.9667854 9.1743917 -0.83590239
-4.0146461 9.2772989 -0.8692866
-3.7380996 9.7927036 -0.96241426
-4.8707447 8.997366 -1.0008309
-3.9163265 9.0500956 -1.0225275
-3.8558042 8.9102373 -1.1784968
-3.8486595 8.8937263 -1.3476328
-4.8614936 10.09873 -0.36788988
-3.9893668 10.567591 -0.43748441
-5.169982 9.6334953 -0.48805666
-4.6101174 9.5765495 -0.53729707
-3.9147825 10.370022 -0.62572765
-3.8759511 10.266617 -0.81338298
-4.9255848 9.1784811 -0.83462453
-3.9712002 9.2699709 -0.8672303
-3.6881137 9.7690735 -0.95875698
-4.8358526 9.0116491 -1.0004414
-3.8666792 9.0259876 -1.0181956
-3.8066759 8.8859215 -1.3443271
-4.8590302 10.175282 -0.3701207
-3.9862463 10.660564 -0.44081277
-5.1359348 9.6426353 -0.4876999
-4.5679588 9.5657501 -0.53588337
-4.9807801 9.3517275 -0.66066664
-3.8695266 10.347866 -0.81885284
-5.0157466 9.4173794 -0.85491109
-3.9405005 9.2787333 -0.86688763
-3.6406634 9.7358408 -0.95436823
-4.7972255 9.007472 -0.9982996
-3.8460803 9.0564013 -1.0202584
-3.8082588 8.9673424 -1.1825938
-3.8035197 8.9561834 -1.3531424
-4.8251224 10.200251 -0.37038314
-3.9859595 10.780073 -0.44514737
-5.0688434 9.6013203 -0.48466739
-3.9133565 10.583717 -0.63699996
-5.1002326 9.6611862 -0.6812036
-3.8710032 10.468611 -0.82727939
-5.383266 10.197326 -0.92391735
-3.8748062 9.2177992 -0.85986203
-3.6484716 9.8668032 -0.96588868
-4.752099 9.0021105 -0.99576831
-3.8251956 9.0997791 -1.0235589
-3.7969091 9.0324888 -1.1893419
-3.7890916 9.0138912 -1.3597537
-4.7766786 10.194336 -0.3695302
-3.9896533 10.912861 -0.45002377
-5.0271344 9.6074419 -0.48404303
-4.4477134 9.4922628 -0.52992576
-3.9101923 10.695512 -0.6428616
-5.3507409 10.226327 -0.71966362
-4.3516135 9.2871675 -0.70027119
-5.343082 10.211689 -0.92343813
-3.8471189 9.2466564 -0.86123288
-3.8283913 10.471195 -1.0236738
-4.7135363 9.0088844 -0.9946
-3.8086293 9.1541462 -1.028097
-3.791234 9.1123362 -1.198018
-3.7841835 9.0953903 -1.3699465
-4.7050338 10.124094 -0.36644641
-3.9893658 11.019298 -0.45389396
-4.9757495 9.5824041 -0.48199162
-4.4128199 9.4953203 -0.52931988
-3.9173565 10.820396 -0.649625
-5.3415837 10.287374 -0.72277528
-4.3165293 9.288126 -0.69931751
-3.8987899 10.768525 -0.84886318
-3.8362825 9.3029089 -0.86534542
-3.8449707 10.619875 -1.0370228
-4.6732869 9.0006828 -0.99206871
-3.8101878 9.2396297 -1.0363482
-3.796649 9.2067986 -1.208863
-3.794106 9.2006321 -1.3839958
-4.6561942 10.115849 -0.36552781
-3.9967642 11.167441 -0.4593896
-4.934195 9.5881405 -0.48136729
-4.3596139 9.4715118 -0.52709842
-3.9140058 10.936204 -0.65571207
-5.3394637 10.376104 -0.72762948
-4.2749491 9.2875719 -0.69809139
-3.9177692 10.946117 -0.86172473
-4.8593097 9.4430275 -0.8509177
-3.7848432 9.2744741 -0.86140424
-3.8409202 10.731403 -1.0465318
-4.6247835 8.9876623 -0.98875856
-3.7965918 9.3032627 -1.0419177
-3.7816331 9.2666082 -1.214888
-4.631032 10.144975 -0.36605272
-3.9903638 11.260942 -0.46271795
-4.8940535 9.5840206 -0.48038617
-4.3323255 9.490612 -0.52740133
-3.9216471 11.067021 -0.66281366
-4.7894096 9.3795004 -0.65668374
-4.2432642 9.2955103 -0.69768268
-3.9259994 11.07869 -0.87118614
-5.2258167 10.234154 -0.9207226
-3.7519524 9.2770824 -0.86054742
-3.8377888 10.82977 -1.0549436
-4.5983357 9.0056925 -0.98914802
-3.8031476 9.4036674 -1.0518191
-3.794189 9.3815165 -1.2283841
-4.5921712 10.158237 -0.3659215
-3.9979479 11.415069 -0.46844581
-4.8480678 9.5805016 -0.47931588
-4.2835236 9.4754858 -0.52568471
-3.9345217 11.233972 -0.67194426
-4.8901873 9.6641541 -0.67535365
-4.1993027 9.2891817 -0.69604778
-3.8767965 11.068534 -0.8692643
-5.1837711 10.244344 -0.91992396
-3.7208862 9.298171 -0.86123288
-3.8461301 10.980979 -1.0682926
-4.5608039 9.0136051 -0.98817444
-3.7952633 9.4840326 -1.0592452
-3.7848582 9.4580317 -1.2365781
-4.5459242 10.154931 -0.36519974
-3.9979184 11.550514 -0.47339961
-4.8084431 9.5892754 -0.47886992
-4.245501 9.4838295 -0.52528083
-3.9357743 11.370971 -0.67927128
-5.1813054 10.333309 -0.72078383
-4.1644125 9.3026896 -0.69591153
-3.8936148 11.248531 -0.88227367
-4.6305871 9.2349873 -0.82775587
-3.6816471 9.2987776 -0.86003339
-3.8410361 11.096633 -1.0781673
-4.5170307 9.0089092 -0.98583788
-3.7941639 9.582963 -1.068734
-3.7837882 9.556757 -1.2476642
-4.5221095 10.187432 -0.36585587
-3.999181 11.672672 -0.47788903
-4.7622743 9.572135 -0.47726446
-4.2181172 9.5025969 -0.52558374
-3.9362752 11.489065 -0.68558377
-5.1310344 10.313792 -0.7182945
-4.1270714 9.2974892 -0.69454914
-3.8886423 11.34939 -0.88922191
-4.6956782 9.4386911 -0.84468794
-3.654599 9.3158627 -0.86054742
-3.8410156 11.210386 -1.088042
-4.4860463 9.0177088 -0.98525375
-3.7960057 9.6763201 -1.0778104
-3.7870998 9.6536179 -1.2587503
-4.4557858 10.13806 -0.36349383
-3.9986653 11.812188 -0.48299766
-4.711257 9.5572681 -0.47565901
-4.1704006 9.4887352 -0.52396816
-3.9543247 11.681206 -0.69617981
-5.077312 10.300302 -0.71605414
-4.092164 9.3107262 -0.69441289
-3.8981843 11.514703 -0.9010486
-5.0409527 10.226539 -0.91353446
-3.6182675 9.3236217 -0.86003339
-3.8465223 11.362101 -1.1013911
-4.4468045 9.0215921 -0.98389071
-3.79794 9.7866058 -1.0885369
-3.7911987 9.7692347 -1.2720053
-4.4337521 10.189148 -0.36474046
-3.9978137 11.953751 -0.48818368
-4.6779499 9.5780621 -0.47583741
-4.138783 9.5112829 -0.52437204
-3.9184511 11.716451 -0.69741976
-5.014998 10.26862 -0.71256906
-4.0564184 9.3220034 -0.69414043
-3.8844235 11.614032 -0.90770113
-4.6254888 9.4710665 -0.8445282
-3.5983524 9.3740273 -0.86346048
-3.8421237 11.48756 -1.11218
-4.4206967 9.0521393 -0.98544842
-3.7919872 9.8784628 -1.0972006
-3.7859623 9.8627682 -1.2823684
-4.3985524 10.195685 -0.36447802
-3.9966593 12.076295 -0.4926731
-4.6330261 9.5621433 -0.47432116
-4.0978045 9.4985619 -0.5229584
-5.0253606 10.372347 -0.71866792
-4.0247412 9.3292046 -0.69373173
-3.8811328 11.726534 -0.91553634
-3.7424071 9.8416052 -0.9054426
-3.8542011 11.645162 -1.1262606
-4.3662009 9.0122423 -0.97960699
-3.7991164 9.990737 -1.1083397
-3.7916546 9.9711132 -1.2949004
-4.3627243 10.215415 -0.36460924
-4.0001841 12.23713 -0.49863315
-4.5988126 9.5808611 -0.47441033
-4.0653167 9.5190287 -0.52326131
-3.9322948 12.029448 -0.714441
-4.4785595 9.3307514 -0.64535731
-4.0892653 9.5751047 -0.71089792
-4.4901757 9.3549528 -0.83142978
-3.7042065 9.8496599 -0.90492851
-3.8473868 11.769007 -1.1368667
-4.3357239 9.0335684 -0.98019117
-3.7932844 10.086522 -1.117416
-3.7872317 10.070428 -1.3059865
-4.3384032 10.247478 -0.36526537
-4.0035391 12.378941 -0.50389659
-4.5575247 9.5718098 -0.47325084
-4.0743284 9.623723 -0.52831012
-3.9319663 12.157638 -0.72131711
-4.458663 9.3646002 -0.64672643
-3.958813 9.3508711 -0.69332302
-3.8840857 12.008875 -0.93549395
-4.4247699 9.2934132 -0.82472086
-3.8186164 10.251516 -0.94074184
-3.8508458 11.906103 -1.1489358
-4.3047562 9.0417528 -0.97960699
-3.8067141 10.219563 -1.1308242
-3.8020093 10.206933 -1.3221337
-4.3077679 10.279902 -0.36585587
-4.0073895 12.547736 -0.51016629
-4.5190024 9.5812216 -0.47289407
-3.9857612 9.5114765 -0.52134275
-3.9408398 12.339358 -0.73123676
-4.3996172 9.3285227 -0.64311695
-3.9168019 9.3469152 -0.69196057
-3.8916256 12.184527 -0.94805986
-4.3872762 9.3023558 -0.8240819
-3.8250945 10.385113 -0.95170861
-3.8520222 12.060531 -1.1624677
-4.2613988 9.0358658 -0.97727042
-3.6722853 9.9702368 -1.1017388
-3.8071189 10.336309 -1.3370757
-4.2815485 10.323318 -0.36684006
-3.9992378 12.682417 -0.51504266
-4.4796267 9.5886688 -0.47244811
-3.9615862 9.5518522 -0.5227564
-3.9442296 12.507974 -0.74036735
-4.3746905 9.3644791 -0.64448607
-3.9062147 9.4183445 -0.69618404
-3.8895314 12.333764 -0.95855606
-4.3362761 9.2822485 -0.82088715
-3.8142796 10.473957 -0.95856279
-3.8467267 12.19803 -1.1743538
-4.2248821 9.0442104 -0.97649157
-3.516592 9.6565113 -1.0656399
-3.8133686 10.471456 -1.3527408
-4.2421646 10.335243 -0.36670884
-4.0038147 12.861093 -0.52169937
-4.4335446 9.5814505 -0.47128862
-3.9432366 9.6069603 -0.52497792
-3.9547451 12.70347 -0.7510761
-4.3252506 9.3478413 -0.64224565
-4.098968 9.986371 -0.7370559
-3.9053676 12.544087 -0.97378296
-4.3407359 9.3813086 -0.82823503
-3.849355 12.364174 -1.188983
-4.177496 9.028924 -0.97318143
-3.4980221 9.7161293 -1.0707968
-3.8032098 10.563821 -1.3628628
-4.2111812 10.352222 -0.36684006
-4.0022016 12.999669 -0.52680802
-4.4100885 9.6098595 -0.47200218
-3.9682832 12.889499 -0.76133394
-4.2875366 9.3432407 -0.64100099
-4.1653171 10.239476 -0.754767
-3.9140661 12.712605 -0.98590535
-4.3162308 9.4057703 -0.82919347
-3.9188688 10.993316 -1.0036293
-3.8526883 12.513254 -1.2021493
-4.14745 9.0383854 -0.97279203
-3.8021383 10.665861 -1.1741428
-3.8053372 10.674834 -1.375636
-4.2038131 10.443616 -0.3695302
-3.9928768 13.140454 -0.53191662
-4.3632636 9.6004925 -0.47075349
-3.9750049 13.081638 -0.77181721
-4.2458305 9.3425379 -0.63988078
-4.13521 10.273184 -0.75612944
-3.9277568 12.925335 -1.0012801
-4.2759542 9.4088221 -0.82807529
-3.9136469 11.107213 -1.0127112
-3.8565989 12.691172 -1.2178756
-4.1019421 9.0263433 -0.96987128
-3.8073146 10.805435 -1.1879636
-4.1998658 10.529181 -0.37208909
-4.3191247 9.5831871 -0.46923724
-3.9471028 13.138047 -0.77440983
-4.2090774 9.3394518 -0.63876063
-3.9405055 13.115257 -1.0150287
-4.1947694 9.307703 -0.81801188
-3.8944845 11.164609 -1.0168236
-3.8591175 12.844372 -1.2314075
-4.0670218 9.0246677 -0.96831357
-3.8074205 10.915016 -1.1986902
-4.1994023 10.641191 -0.37550095
-4.2856002 9.602602 -0.46941561
-4.1764455 9.3584614 -0.63900954
-3.8963776 13.142997 -1.0160635
-4.1549392 9.3102713 -0.81689376
-3.8373029 11.131711 -1.0125397
-3.8573012 13.011188 -1.2460366
-4.034729 9.0413303 -0.9685083
-3.8036954 11.034219 -1.2102418
-4.1792731 10.704924 -0.37720686
-4.2350316 9.5835218 -0.46772096
-4.0018501 10.250467 -0.55628067
-4.1364694 9.3609257 -0.63813829
-3.8935316 13.312251 -1.028038
-4.1634941 9.4220839 -0.82535982
-3.8420942 11.279623 -1.024706
-3.8621407 13.204923 -1.2632259
-3.9782333 9.0032587 -0.9628616
-3.8074856 11.178019 -1.224475
-4.1874461 10.826132 -0.38101241
-4.2105165 9.6095896 -0.46834531
-3.9624219 10.244359 -0.55527091
-4.107842 9.3757029 -0.63826275
-3.9913776 10.319221 -0.75544822
-4.186677 9.5556355 -0.83590239
-3.84356 11.401155 -1.0346447
-3.9762886 9.0758772 -0.96928716
-3.8047607 11.286065 -1.2349954
-4.1805944 10.927286 -0.38403058
-4.167316 9.6066275 -0.46745339
-3.9512563 10.32784 -0.55900705
-4.0702729 9.3833704 -0.63776487
-3.9050455 10.207054 -0.74618393
-4.2523818 9.8031931 -0.85618901
-3.843303 11.539943 -1.0459541
-3.9445813 9.0940428 -0.96967661
-3.8117712 11.445265 -1.2508788
-4.1617384 10.998623 -0.38599896
-4.1202517 9.5942993 -0.4661155
-3.9466004 10.430057 -0.56375295
-4.0216765 9.3652105 -0.63552451
-3.8944426 10.292214 -0.75136101
-4.0472937 9.4248657 -0.82184559
-3.8314936 11.646701 -1.0543505
-3.900228 9.0828333 -0.9669506
-3.8052316 11.566872 -1.2626368
-4.166451 11.116462 -0.38967326
-4.0877419 9.6016808 -0.46584794
-4.0907507 9.6092138 -0.65120721
-3.9013054 10.409031 -0.75899047
-4.0293779 9.4650488 -0.82424164
-3.8281901 11.761 -1.0636038
-3.8825891 9.1206818 -0.96967661
-3.8181329 11.730102 -1.2791392
-4.159718 11.2235 -0.39288828
-4.0455394 9.600028 -0.46504521
-3.9532607 10.66645 -0.57506233
-4.0431018 9.5947104 -0.64921576
-3.8971159 9.248271 -0.80411482
-3.838721 11.941892 -1.078683
-3.8545446 9.1476908 -0.97103959
-3.8171208 11.874695 -1.2933724
-4.1595659 11.332215 -0.39623451
-4.0169005 9.6163769 -0.46522361
-3.9555218 10.776322 -0.58031315
-3.9290798 9.4065981 -0.63564897
-3.9032443 10.633899 -0.77343184
-3.88341 9.2972603 -0.80730957
-3.8350008 12.060233 -1.0882789
-3.854939 9.2295504 -0.97843874
-3.8165698 12.002272 -1.3059555
-4.1718736 11.495827 -0.40141791
-3.9892612 9.6494999 -0.4661155
-3.9555192 10.899651 -0.58616978
-3.9136412 9.4670534 -0.63876063
-3.8955543 10.734414 -0.77969885
-4.0983624 9.9138918 -0.85954344
-3.8385222 12.2263 -1.1019874
-3.8408558 9.2914457 -0.98350132
-3.8196285 12.166121 -1.3222516
-4.1533365 11.576893 -0.40371436
-3.952354 9.6603575 -0.46593714
-3.9600613 11.038162 -0.59283423
-4.0731645 9.9561396 -0.67074841
-3.893244 10.851918 -0.78719205
-3.7909977 9.2664318 -0.80219799
-3.829669 12.35639 -1.1124401
-3.8308926 9.3644142 -0.98973215
-3.8221259 12.332051 -1.3387539
-4.1517391 11.687832 -0.40712622
-3.9512653 9.7449389 -0.46941561
-3.979521 11.20301 -0.60101336
-4.0966182 10.103927 -0.67983449
-3.9118967 11.012635 -0.79795498
-3.7603695 9.274601 -0.80187851
-3.8404651 12.530299 -1.1270053
-3.8328655 9.4538784 -0.99791014
-3.8259203 12.482844 -1.3538123
-4.1439691 11.802931 -0.41060367
-3.9460247 9.8353834 -0.47307247
-3.9735034 11.317407 -0.60636514
-4.1190166 10.267081 -0.68979174
-3.9118283 11.141743 -0.80626559
-3.7218974 9.2772188 -0.80092007
-3.8406682 12.696876 -1.1407137
-3.8233871 9.5306749 -1.0045304
-3.8331327 12.671963 -1.37279
-4.1308241 11.90491 -0.41362187
-3.9409108 9.9277763 -0.4768185
-3.9778314 11.46399 -0.61343348
-3.9187148 11.293617 -0.81621104
-3.6893406 9.2945042 -0.80123955
-3.8334322 12.842615 -1.1525372
-3.8244121 9.6352787 -1.0140715
-3.8281984 12.825082 -1.3878485
-4.1414542 12.057727 -0.41847721
-3.9521196 10.04795 -0.48199162
-3.9963005 11.635117 -0.62191552
-3.9208097 11.415327 -0.82411295
-3.6652308 9.3190355 -0.80235767
-3.8364904 13.001756 -1.1657317
-3.8247211 9.7250462 -1.0222495
-4.1325645 12.176933 -0.42208588
-3.9536645 10.161055 -0.48671877
-3.9690349 11.695081 -0.62433898
-3.9501233 11.639357 -0.83923554
-3.6303275 9.3305492 -0.80219799
-3.8328085 13.166875 -1.1792687
-3.8251374 9.8317509 -1.0319852
-4.1387424 12.343616 -0.4273349
-3.9501271 10.263117 -0.4909108
-3.9548213 10.275848 -0.68655562
-3.9156826 11.678349 -0.84100664
-3.9469793 10.255472 -0.88046896
-3.8276823 9.9460201 -1.0424997
-4.1307893 12.449522 -0.43054992
-3.950609 10.361354 -0.49501359
-3.9673383 11.956907 -0.63686007
-3.9033191 10.237863 -0.68319505
-3.8254895 10.034252 -1.050483
-4.1355577 12.618439 -0.43586454
-3.9478548 10.469239 -0.49947318
-3.9713881 12.117522 -0.64463532
-3.8974617 10.336149 -0.68879604
-3.908808 11.926579 -0.85694665
-3.8468359 10.201888 -0.8736003
-3.8336308 10.167406 -1.0629447
-4.1433716 12.777781 -0.44091672
-3.9687757 10.625712 -0.50634092
-3.9782767 12.268643 -0.65200663
-3.8915098 10.419401 -0.69352573
-3.9187117 12.084949 -0.86743712
-3.8587108 10.331582 -0.88366371
-3.6213017 9.6964426 -1.0125138
-4.1123605 12.842377 -0.44262263
-3.9609544 10.724529 -0.51035458
-3.9905434 12.461958 -0.66149843
-3.9206388 12.243654 -0.87779135
-3.8518982 10.429812 -0.89085186
-3.5684988 9.6629686 -1.0076458
-4.0333509 9.7076445 -0.28279924
-4.092381 12.94313 -0.44557521
-3.964798 10.857212 -0.51597363
-3.9918108 12.625052 -0.66937459
-3.8882883 10.648274 -0.70684361
-3.9286728 12.425364 -0.8897804
-3.5398855 9.6946812 -1.009593
-4.0675483 13.030551 -0.44806847
-3.9575446 10.961877 -0.52025485
-3.9978876 12.807389 -0.67826056
-3.8899024 10.775105 -0.7143116
-3.9318595 12.595866 -0.90095204
-3.9527011 10.949059 -0.9327029
-3.8287413 10.606268 -1.1030558
-3.964114 11.089022 -0.5256955
-4.0189085 13.018377 -0.68876213
-3.8950026 10.896293 -0.72153062
-3.9440641 12.775934 -0.9129411
-3.9585476 11.07406 -0.94228709
-3.8335903 10.725082 -1.1141545
-3.9620526 11.21274 -0.53086865
-3.9962015 13.115181 -0.69310415
-3.9022548 11.044124 -0.73036772
-3.9803784 13.063251 -0.93242335
-3.943835 11.161803 -0.94851685
-3.8320518 10.846039 -1.1252532
-3.9670517 11.340175 -0.53630936
-3.9739935 13.190784 -0.69643635
-3.9070849 11.169379 -0.73783571
-3.941046 13.081423 -0.93283212
-3.8718872 11.068758 -0.93957156
-3.8380485 10.972635 -1.1371307
-3.9685481 11.479269 -0.54219598
-3.9163387 11.328891 -0.7474196
-3.9277573 13.21245 -0.94114274
-3.8964281 11.271295 -0.95554525
-3.8355238 11.095742 -1.1484241
-3.9677856 11.614744 -0.54790425
-3.9102793 11.447061 -0.75426525
-3.874424 11.342097 -0.96033734
-3.8353648 11.228395 -1.1606911
-3.9690349 11.738824 -0.55316657
-3.9401484 11.654059 -0.76708525
-3.8866615 11.495857 -0.97231758
-3.8440578 11.3705 -1.1741265
-3.9056287 11.693035 -0.76870334
-3.8887124 11.64239 -0.98349917
-3.8433442 11.507231 -1.1867828
-3.9724069 12.038929 -0.56592095
-3.8641298 11.711468 -0.98813152
-3.8416796 11.644108 -1.1994393
-3.9798336 12.190001 -0.57243198
-3.9064798 11.966032 -0.78488392
-3.8514075 11.798037 -1.2140429
-3.9780478 12.337619 -0.57867539
-3.905473 12.113257 -0.79359657
-3.8460073 11.929531 -1.2261151
-3.9975562 12.532794 -0.58723778
-3.9159231 12.277605 -0.80355388
-3.8520572 12.078094 -1.2401346
-4.0014095 12.705538 -0.59464067
-3.9242599 12.461327 -0.81463134
-3.8899782 12.352467 -1.03765
-3.8478196 12.219337 -1.2531804
-3.9987106 12.861304 -0.60124087
-3.9235981 12.620492 -0.82409078
-3.9719265 12.775943 -1.0719934
-3.8467338 12.374016 -1.2675893
-4.0058489 13.028495 -0.60846537
-3.944351 12.829278 -0.83691084
-3.9018908 12.691174 -1.0638467
-3.8604839 12.557275 -1.2851136
-3.9870796 13.138685 -0.61292493
-3.966856 13.072864 -0.85184675
-3.8947129 12.835114 -1.0747088
-3.8560452 12.708482 -1.2991329
-3.9234958 13.102612 -0.85284251
-3.8819568 12.963892 -1.084293
-3.8596847 12.890332 -1.3162678
-3.918009 13.235457 -0.86068386
-3.8853493 13.12513 -1.0967525
-3.8666267 13.06272 -1.3326238
-3.8875158 13.311512 -1.1111288
-3.8639188 13.231571 -1.3483957
