# .PCD v0.7 - Point Cloud Data file format
VERSION 0.7
FIELDS x y z
SIZE 4 4 4
TYPE F F F
COUNT 1 1 1
WIDTH 701
HEIGHT 1
VIEWPOINT 0 0 0 1 0 0 0
POINTS 701
DATA ascii
-5.6389236 10.891144 -0.90903163
-5.5825777 10.879796 -0.90637064
-5.5318151 10.87885 -0.90459663
-5.4226503 10.664166 -1.0984652
-5.3783555 10.659812 -1.0962708
-5.4255285 10.852028 -0.89927459
-5.316093 10.633137 -1.0915164
-5.3715515 10.843245 -0.89690924
-5.255867 10.609718 -1.0871277
-5.3497767 10.885126 -0.89897895
-5.1979127 10.57613 -1.0820074
-5.268805 10.820379 -0.89203072
-5.159986 10.596901 -1.0821903
-5.3347015 11.058993 -0.69313627
-5.2169785 10.814467 -0.88996106
-5.1072664 10.587041 -1.0792645
-5.3214803 11.120728 -0.69595432
-5.1640368 10.791223 -0.88670868
-5.0628047 10.579679 -1.0768872
-5.1210332 10.802869 -0.88611734
-5.0171695 10.583767 -1.0754243
-5.1778646 11.027492 -0.68772554
-5.0636015 10.783652 -0.88301283
-4.9656467 10.575043 -1.0726814
-5.1381369 11.032843 -0.68704921
-5.0254884 10.790466 -0.88227367
-5.6603465 10.882697 -1.0548646
-4.9315586 10.588785 -1.0724986
-5.3759871 10.335981 -1.4141961
-5.090138 11.035282 -0.68603468
-5.1529937 11.171039 -0.9118405
-5.5985093 10.860862 -1.050752
-4.8693576 10.556151 -1.0673783
-5.3740945 10.425507 -1.216224
-5.3680873 10.413853 -1.4221492
-5.2068515 11.382195 -0.48477793
-5.2149324 11.39986 -0.70767754
-5.3983274 11.800218 -0.96180838
-5.5344162 10.819853 -1.0450974
-4.8270564 10.551476 -1.0653669
-5.3259144 10.41223 -1.2127172
-5.3344407 10.428899 -1.4219083
-5.1914892 11.459455 -0.48725483
-5.3403883 11.788129 -0.73056042
-5.3509259 11.810841 -0.96106923
-5.4848123 10.820514 -1.0432124
-4.7768445 10.543698 -1.0628067
-5.2598338 10.376674 -1.2063224
-5.1142783 11.4 -0.4839265
-5.3502736 11.926045 -0.73788744
-5.3165817 11.85039 -0.96269542
-5.3914523 10.733706 -1.0329311
-4.7365375 10.557502 -1.062441
-5.2083726 10.369217 -1.2032282
-5.1794281 10.311593 -1.4007001
-5.0833125 11.426967 -0.48439091
-4.956665 11.141746 -0.90385747
-5.3754807 10.78626 -1.0363582
-4.69768 10.559592 -1.0611609
-5.1615739 10.35704 -1.1999278
-5.093873 10.221194 -1.38624
-5.0494528 11.46381 -0.48516494
-5.2084594 11.824244 -0.95766902
-5.3456159 10.825542 -1.0382432
-4.6557341 10.569448 -1.0604295
-5.1121283 10.352701 -1.1972462
-5.0396738 10.205972 -1.3816609
-4.9818373 11.42362 -0.48268804
-5.1499372 11.808519 -0.95486021
-4.6185565 10.590093 -1.0607952
-5.0636582 10.349925 -1.1947708
-5.0327721 10.286795 -1.3900961
-4.9332347 11.409864 -0.48144957
-5.1151886 11.830132 -0.95530373
-4.5734076 10.577129 -1.0580522
-5.0215631 10.346095 -1.1925018
-4.9822249 10.265045 -1.385035
-4.8803725 11.402147 -0.48036593
-5.0474639 11.791959 -0.95072085
-5.2207346 10.857581 -1.0360155
-4.5299072 10.582834 -1.0569551
-4.9620576 10.31961 -1.1873448
-4.9454284 10.285027 -1.385276
-4.8281345 11.378789 -0.47874045
-5.0064983 11.798577 -0.94998169
-5.1668677 10.832562 -1.0320743
-4.497416 10.598847 -1.057138
-4.9261875 10.327966 -1.1865196
-4.9173665 10.309472 -1.386481
-4.7593112 11.331918 -0.47603133
-4.6509237 11.073847 -0.67803133
-4.9562693 11.800298 -0.94865119
-5.1075511 10.809989 -1.0281332
-4.458539 10.615259 -1.057138
-4.8645048 10.295588 -1.1807438
-4.8668246 10.300499 -1.382866
-4.7093077 11.328985 -0.47517991
-4.6003408 11.066849 -0.67656589
-5.0281978 10.743813 -1.0200795
-4.4127216 10.614978 -1.0554922
-4.82758 10.31515 -1.1809502
-4.7945337 10.24454 -1.3729849
-4.6622739 11.316008 -0.47401884
-4.55338 11.051706 -0.67476231
-4.9885473 10.746904 -1.01888
-4.3770757 10.623264 -1.0549436
-4.7800736 10.297787 -1.177237
-4.7690134 10.273959 -1.374913
-4.6003947 11.283053 -0.47192895
-4.4864564 11.003605 -0.67081702
-4.9882445 10.850208 -1.0269337
-4.3178072 10.589442 -1.0500063
-4.7422986 10.315237 -1.177237
-4.7122507 10.249879 -1.3693699
-4.5575137 11.296132 -0.47177416
-4.4341421 10.990346 -0.66901344
-4.9071579 10.777742 -1.0183659
-4.2819467 10.612584 -1.0507376
-4.698689 10.319876 -1.1757932
-4.6590199 10.232749 -1.3647909
-4.5123587 11.28627 -0.47076792
-4.4010758 11.007931 -0.66923887
-4.4154682 11.04337 -0.88153452
-4.8560543 10.754968 -1.0147674
-4.233058 10.58715 -1.0468975
-4.6572399 10.314642 -1.173524
-4.6325693 10.260002 -1.3664778
-4.4643459 11.286008 -0.47007129
-4.3496828 10.996135 -0.66754806
-4.3632236 11.029804 -0.87916917
-4.883297 10.92186 -1.0288186
-4.1890974 10.589629 -1.0456175
-4.614532 10.320746 -1.1722864
-4.5997953 10.287787 -1.3679239
-4.418581 11.291128 -0.46960685
-4.2998905 10.98783 -0.66608262
-5.3916721 10.863357 -0.82806391
-4.7432065 10.713748 -1.0075705
-4.1451755 10.591929 -1.0443374
-4.5678148 10.31758 -1.1700172
-4.5250859 10.221066 -1.3568379
-4.3751402 11.284457 -0.46875542
-4.2653503 11.001284 -0.66608262
-5.3839612 10.933945 -0.83215106
-4.22892 10.906758 -0.86704677
-4.6943073 10.693929 -1.0043148
-4.1140394 10.610471 -1.044886
-4.5289817 10.317307 -1.168367
-4.5145001 10.284317 -1.3633449
-4.3308887 11.292953 -0.46844581
-4.218565 11.000064 -0.66506815
-4.1967731 10.942669 -0.86867297
-4.6519036 10.703753 -1.0036293
-4.0687037 10.608742 -1.0432402
-4.4824142 10.313768 -1.166098
-4.4720278 10.289869 -1.3618989
-4.2965565 11.327436 -0.46921983
-5.3587818 11.087147 -0.6225214
-4.1775112 11.013584 -0.66495538
-4.2245474 11.137005 -0.88286501
-4.6008277 10.693274 -1.0010589
-4.0156665 10.58634 -1.039583
-4.4390788 10.317336 -1.164654
-4.4193745 10.271539 -1.3573198
-4.2490001 11.309074 -0.46790397
-5.3411956 11.13995 -0.62454093
-4.1323557 10.998615 -0.66326457
-4.2428551 11.292121 -0.89410043
-4.561739 10.694846 -0.99985951
-3.9893937 10.617547 -1.0414116
-4.4050832 10.327572 -1.1642414
-4.3956518 10.305461 -1.3599708
-4.2137861 11.341433 -0.4686006
-5.2634802 11.081867 -0.62019897
-4.1010571 11.038021 -0.66472995
-4.2924423 11.552519 -0.91346669
-4.5139837 10.6913 -0.99797457
-3.956001 10.647033 -1.0428745
-4.3602371 10.327153 -1.162385
-4.3416338 10.283092 -1.3549098
-4.165987 11.339917 -0.46790397
-5.2245288 11.104699 -0.62040091
-4.185895 11.394108 -0.68524563
-4.2404418 11.541964 -0.91139698
-4.4755363 10.709612 -0.99814594
-3.9203851 10.670808 -1.0437888
-4.3192887 10.335723 -1.1615598
-4.3031497 10.297104 -1.3546689
-4.141273 11.382998 -0.46914244
-5.1558299 11.048656 -0.61636186
-4.1719251 11.46725 -0.68885279
-5.0491691 10.820086 -0.81525737
-5.6560006 10.851199 -0.98046416
-4.4418688 10.723619 -0.99814594
-3.882076 10.669971 -1.0425088
-4.285274 10.345566 -1.1611472
-4.2373481 10.229862 -1.3440647
-4.1035829 11.409384 -0.46960685
-5.1211662 11.080171 -0.61706865
-3.9784861 11.061571 -0.66360271
-5.1995091 11.249674 -0.84618378
-3.9045806 10.855494 -0.8550722
-5.5905714 10.822262 -0.97599155
-4.3896866 10.708484 -0.99523288
-3.8638389 10.742224 -1.0481776
-5.4263568 10.504824 -1.1566021
-4.2435541 10.351999 -1.1601158
-4.1975665 10.239814 -1.3433417
-4.0556507 11.388331 -0.46821359
-5.0680203 11.056257 -0.61484718
-3.9423759 11.070253 -0.66337729
-5.4135771 11.810115 -0.88705564
-4.0999818 11.512177 -0.9057793
-5.5465412 10.820257 -0.97423446
-4.3605232 10.733298 -0.996261
-3.8601408 10.838737 -1.0564065
-5.3815246 10.498792 -1.1540709
-4.2102628 10.363437 -1.1599096
-4.1526723 10.22168 -1.3392447
-4.0390983 11.474754 -0.47115493
-5.0216832 11.062026 -0.61414033
-5.3661304 11.820792 -0.88637441
-3.9359014 11.180956 -0.87857783
-5.4869819 10.80141 -0.97072023
-4.3055468 10.710382 -0.99266255
-3.8494866 10.935472 -1.0644525
-5.3105555 10.454557 -1.1470612
-4.1685405 10.36957 -1.1588782
-4.1270289 10.266306 -1.3431008
-4.0259066 11.572533 -0.47456068
-5.3381853 11.874675 -0.65816617
-4.120935 11.845694 -0.70801574
-3.7723396 10.84304 -0.85093284
-5.420464 10.768026 -0.96592814
-4.2618432 10.714982 -0.99163443
-3.8499544 11.066133 -1.07579
-5.2695169 10.468617 -1.1464771
-4.1260948 10.373688 -1.1576406
-4.0849705 10.270294 -1.3416548
-4.0207648 11.675824 -0.47827604
-3.7402048 10.860495 -0.85137635
-5.3892808 10.790353 -0.96640736
-3.848244 11.17421 -1.0851161
-5.2197051 10.451286 -1.1427774
-4.0927553 10.384748 -1.1574342
-4.0687013 10.323714 -1.3469567
-4.0210776 11.817245 -0.48346207
-4.8668537 11.026293 -0.60929346
-4.9664931 11.252035 -0.83978051
-3.7016592 10.877907 -0.85167205
-4.1772294 10.714038 -0.98889273
-3.8476834 11.307023 -1.0966365
-5.1716528 10.450724 -1.1406356
-4.0590014 10.410799 -1.158672
-4.0236235 10.320059 -1.3445468
-4.0127645 11.93609 -0.48771927
-4.818409 11.025753 -0.6082837
-3.9686661 11.804917 -0.70305592
-5.3756108 10.963298 -0.76135981
-5.1849036 11.864388 -0.88405836
-3.6560442 10.874387 -0.8503415
-4.1336303 10.718122 -0.98786461
-3.8455658 11.438092 -1.1079742
-5.1201701 10.4428 -1.1377149
-4.01509 10.410758 -1.1570216
-4.0093474 10.395867 -1.3524998
-4.0238252 12.094654 -0.49367934
-4.7900996 11.055499 -0.60909152
-3.943537 11.853327 -0.70519763
-5.3455081 10.989107 -0.76198214
-5.1285663 11.836677 -0.88078856
-3.918438 11.777199 -0.91997135
-4.099227 10.729194 -0.98769325
-3.8485959 11.567283 -1.1193117
-5.0751486 10.433774 -1.1349889
-3.983784 10.427037 -1.1574342
-3.9880056 10.438087 -1.3563558
-4.0131617 12.211845 -0.49785912
-4.7377362 11.045445 -0.60757685
-3.9380941 11.983418 -0.7120738
-5.0875082 11.860896 -0.88119733
-3.8789825 11.802851 -0.92085838
-4.0535355 10.727369 -0.98615104
-3.844105 11.696726 -1.1304665
-5.0256391 10.428994 -1.1324576
-3.9455402 10.441568 -1.1574342
-3.9251585 10.38763 -1.3479208
-4.0115643 12.359534 -0.50327736
-5.3526196 11.211422 -0.55459362
-4.7073693 11.086637 -0.60888958
-5.0447812 11.8813 -0.88133353
-3.8824961 11.961167 -0.93209374
-4.0148883 10.744021 -0.9863224
-3.835027 11.814925 -1.140524
-4.978806 10.42938 -1.1305104
-3.9093325 10.46155 -1.158053
-3.8898394 10.409385 -1.3488848
-4.0228176 12.528107 -0.50962442
-5.2874408 11.164981 -0.55147189
-4.6810398 11.121623 -0.61000031
-3.9431238 12.279919 -0.72808051
-4.5398946 10.786278 -0.79904485
-3.9735069 10.736025 -0.98443747
-3.5999885 11.210633 -1.0810931
-4.9349422 10.421584 -1.1279792
-3.8805904 10.484973 -1.1592908
-3.8667662 10.447622 -1.3522588
-4.0191545 12.676119 -0.51504266
-5.2464838 11.184286 -0.55147189
-4.6341009 11.123954 -0.60919249
-3.9385245 12.421819 -0.73563296
-4.5072365 10.819422 -0.80027103
-3.9565258 12.477838 -0.97023493
-3.9389243 10.763616 -0.98563701
-3.5606813 11.229448 -1.0816417
-4.8975573 10.441403 -1.1281739
-3.8503389 10.521544 -1.1617662
-3.8318594 10.471046 -1.3534638
-4.0313401 12.854586 -0.5217768
-5.2045789 11.18622 -0.55075836
-4.5808349 11.094148 -0.60676903
-3.9538562 12.607514 -0.7458908
-5.0765338 10.91151 -0.7504068
-4.4656086 10.815085 -0.79890865
-3.9656532 12.644359 -0.9822095
-5.0844402 10.928505 -0.9657684
-3.8928697 10.742215 -0.98255259
-3.8555737 12.293373 -1.1829485
-4.8521361 10.429667 -1.1252532
-3.8382766 10.591568 -1.1681608
-3.8260028 10.557698 -1.3631039
-4.0249805 13.001003 -0.52711761
-5.1526737 11.181631 -0.54959887
-3.958998 12.787874 -0.75569773
-5.1868753 11.256368 -0.7728107
-4.4115992 10.796285 -0.79632008
-3.9175129 12.653092 -0.98176599
-5.3939347 11.705721 -1.0326982
-3.8541434 10.758286 -0.98272395
-3.8587914 12.463429 -1.1979433
-4.811378 10.441957 -1.1246691
-3.8255968 10.678603 -1.1762056
-3.8160741 10.652022 -1.373467
-4.0216894 13.160924 -0.53300029
-5.0975537 11.169541 -0.54808265
-3.9552839 12.943613 -0.76403928
-5.3635397 11.752901 -0.80554533
-4.3712511 10.810532 -0.79618382
-3.9113317 12.79898 -0.99196655
-5.3509951 11.725412 -1.0326982
-3.8472791 10.86438 -0.99112034
-3.8648882 12.647004 -1.2142183
-4.7648106 10.441413 -1.1227219
-3.8169785 10.778813 -1.1856946
-3.8187602 10.783845 -1.3886501
-4.0335021 13.349497 -0.54012144
-5.0418429 11.139994 -0.54585284
-4.40943 11.004303 -0.59929675
-3.9787085 13.168148 -0.7765516
-5.3537502 11.829705 -0.80965269
-4.3291035 10.803837 -0.79468518
-3.9172564 12.963946 -1.0037932
-3.790714 10.812478 -0.98529428
-3.8712234 12.811603 -1.2288474
-4.7180328 10.425502 -1.1194118
-3.815347 10.88274 -1.1958022
-3.8131082 10.876354 -1.399013
-4.0307989 13.519321 -0.54639107
-4.9895387 11.132873 -0.54460418
-4.3683314 11.018533 -0.59919578
-3.9486752 13.243877 -0.7801587
-4.2857995 10.810357 -0.79400402
-3.9295559 13.178911 -1.0193158
-4.9392233 11.021122 -0.96768522
-3.7536683 10.833831 -0.98597968
-3.8635073 12.957398 -1.241465
-4.6765337 10.435458 -1.1186329
-3.8106029 10.998155 -1.2069414
-3.8141682 11.008446 -1.4141961
-4.0364923 13.721896 -0.55397666
-4.943028 11.138302 -0.54397982
-4.316977 11.006577 -0.59768116
-4.2425056 10.816705 -0.7933228
-3.9003651 13.258282 -1.0243422
-5.2295327 11.784449 -1.0330175
-3.7126443 10.843745 -0.98563701
-3.8615189 13.126235 -1.2562771
-4.6269517 10.427057 -1.115907
-3.8121517 11.134382 -1.2203494
-3.809166 11.125662 -1.4274513
-4.0424647 13.903384 -0.56078815
-4.8943315 11.122686 -0.54246354
-4.2838244 11.023808 -0.59788311
-3.9543257 13.600244 -0.79954714
-5.2231469 11.870503 -0.80865699
-4.2178988 10.854158 -0.79509395
-4.7500763 10.795368 -0.94500262
-3.6766407 10.849693 -0.98512292
-3.8703098 13.310419 -1.2727348
-4.5837498 10.417856 -1.1133757
-3.8116302 11.248045 -1.2314886
-3.8079672 11.237235 -1.4402243
-4.0361047 14.073713 -0.56705785
-4.8455515 11.122233 -0.54157162
-4.2312078 11.00774 -0.59616649
-3.950691 13.77588 -0.80901593
-5.1580791 11.840158 -0.80529642
-4.1709285 10.85092 -0.79373151
-3.9073555 13.623875 -1.0505089
-4.6897755 10.765185 -0.94084948
-3.6463392 10.891439 -0.98769325
-3.8709147 13.496815 -1.2891926
-4.545536 10.434587 -1.1133757
-3.8095348 11.378898 -1.244278
-3.8133981 11.390437 -1.4580584
-4.0490842 14.288217 -0.57518518
-4.7947412 11.100717 -0.53978783
-4.1930513 11.011644 -0.59566158
-3.9721808 14.016842 -0.82243001
-5.1137333 11.83981 -0.80417621
-4.2454586 11.149274 -0.81457621
-3.9140255 13.810707 -1.0639617
-4.6480274 10.761563 -0.93925208
-3.7599978 11.349245 -1.0281332
-3.880084 13.690944 -1.3065647
-4.5032616 10.426888 -1.111039
-3.8144338 11.513556 -1.2576861
-3.8113127 11.504134 -1.4710724
-4.0467072 14.481964 -0.58238369
-4.7603068 11.132913 -0.54050136
-4.1618152 11.05124 -0.59697431
-3.9804299 14.244777 -0.83494228
-5.0648108 11.845626 -0.80330491
-4.3318491 11.502747 -0.83923554
-3.9229658 14.038183 -1.0803713
-4.602283 10.763863 -0.93797421
-3.710319 11.33833 -1.0259055
-3.8754399 13.868114 -1.3221081
-4.4689274 10.452474 -1.1120126
-3.817374 11.665478 -1.2727445
-3.8166685 11.663322 -1.4896296
-4.0424333 14.673958 -0.58950484
-4.7085676 11.124525 -0.53925264
-4.1101284 11.036469 -0.59535867
-4.0151682 14.574987 -0.85342896
-4.3105516 11.574643 -0.84332269
-3.9631352 14.385127 -1.1059467
-4.5526991 10.756791 -0.93589765
-3.6528049 11.302555 -1.0214503
-3.8727226 14.056953 -1.3387488
-4.4205017 10.444953 -1.1094813
-3.8137453 11.800539 -1.2859464
-3.815413 11.805699 -1.5060177
-4.671277 11.133736 -0.53898507
-4.1646037 11.291079 -0.60838467
-3.9866614 14.651113 -0.85714883
-4.2569051 11.541326 -0.83991671
-3.9922915 14.670792 -1.1269391
-4.5088568 10.747142 -0.93382102
-3.6045356 11.274117 -1.0178518
-3.8876362 14.286207 -1.3594124
-4.386126 10.455117 -1.109092
-3.8239076 11.960259 -1.3020362
-4.6158795 11.115723 -0.53729045
-4.0677595 11.154265 -0.60020554
-3.9644859 14.783275 -0.86402494
-3.9629998 10.867002 -0.78978056
-3.9297101 14.652576 -1.1244259
-4.4694362 10.763596 -0.93382102
-3.8894186 14.502342 -1.3786132
-4.3393807 10.450901 -1.10695
-3.826757 12.122165 -1.318126
-4.5728288 11.127022 -0.53702289
-4.0011063 11.097695 -0.59636843
-3.9380322 10.92275 -0.79277784
-3.9080839 14.788366 -1.1337395
-4.4148002 10.743025 -0.93062633
-3.8384016 12.316116 -1.1093557
-3.8927214 14.730233 -1.3989111
-4.2927246 10.446484 -1.1048082
-3.823143 12.267157 -1.3323593
-4.5363426 11.137631 -0.53684449
-3.9722662 11.127141 -0.59727722
-4.1452055 11.611579 -0.84182411
-4.384788 10.766073 -0.93142498
-3.8407745 12.461411 -1.1213505
-4.2561312 10.450701 -1.1038346
-3.8273594 12.417886 -1.3474177
-4.4850345 11.12824 -0.53559577
-4.0966434 11.609759 -0.84059793
-4.3289046 10.741392 -0.9279108
-3.8374104 12.614571 -1.1338595
-4.2118468 10.45146 -1.1022769
-3.8287163 12.585991 -1.3641263
-4.4442172 11.144603 -0.53559577
-4.344449 10.89497 -0.73136348
-4.0586634 11.637885 -0.8415516
-4.29246 10.764593 -0.92854971
-3.8381312 12.785048 -1.1479107
-4.1690884 10.455733 -1.1011087
-3.8311796 12.761892 -1.3816601
-4.3006344 12.457448 -0.4325839
-4.4040437 11.145502 -0.53497148
-4.3013978 10.886288 -0.7298699
-4.2542253 10.7669 -0.92759132
-3.8438692 12.951777 -1.1617905
-4.1347575 10.465077 -1.1007192
-3.8363481 12.926435 -1.3981624
-4.2994771 12.603666 -0.43711117
-4.3580718 11.148543 -0.53434712
-4.0190005 11.781466 -0.62928683
-4.2476606 10.866656 -0.72750503
-3.7873755 11.102469 -0.80095226
-4.2038469 10.754568 -0.92519528
-3.8400478 13.114942 -1.1751562
-4.0884023 10.459768 -1.0985774
-3.8336651 13.093143 -1.4146647
-4.2943897 12.719381 -0.44065425
-4.3208613 11.15659 -0.53407955
-3.9858022 11.805388 -0.62989271
-4.2221518 10.902284 -0.7289986
-3.9854512 11.80435 -0.85067964
-4.1736398 10.777018 -0.92599392
-3.8431413 13.280069 -1.1888646
-4.0583973 10.479985 -1.0993562
-3.8483665 13.298125 -1.435499
-4.296443 12.881045 -0.44570643
-4.2727938 11.153694 -0.53318763
-3.9696829 11.901396 -0.63423473
-4.1685977 10.882269 -0.72663373
-3.9295325 11.781021 -0.84795487
-4.1291199 10.77921 -0.9248758
-3.8518667 13.495259 -1.206857
-4.0128388 10.476202 -1.0974091
-3.8542004 13.503435 -1.4561269
-4.2773514 12.98214 -0.448659
-4.2283454 11.159938 -0.53274167
-4.1300988 10.901208 -0.7268827
-3.926913 11.918529 -0.85681045
-4.0811086 10.7719 -0.92295897
-3.8498881 13.678081 -1.2219362
-3.9793508 10.503869 -1.098772
-3.845645 13.663005 -1.4718041
-4.2700019 13.09814 -0.45220208
-4.1883502 11.160071 -0.53211731
-3.9845424 12.222498 -0.64988607
-4.0916233 10.902916 -0.72613591
-4.0493488 10.790268 -0.92343813
-3.8565464 13.868649 -1.2378724
-3.9442344 10.510728 -1.0981879
-3.8485374 13.839848 -1.4895443
-4.24892 13.197422 -0.45508903
-4.1390762 11.15287 -0.53104705
-3.9788947 12.358706 -0.65634859
-4.05094 10.915968 -0.7260114
-3.9258018 12.193796 -0.87465781
-4.0083861 10.801299 -0.92311871
-3.8499415 14.044118 -1.2522662
-3.9105318 10.538177 -1.099551
-3.8477499 14.036123 -1.5091407
-4.2526031 13.376735 -0.46073171
-4.0947294 11.158587 -0.53060108
-3.9844048 12.533106 -0.66483063
-4.1683693 11.359876 -0.75451416
-3.9288409 12.358327 -0.88542074
-3.9440472 10.748541 -0.91736817
-3.8530166 14.260118 -1.2702585
-3.8787374 10.571126 -1.1014981
-4.2489338 13.512068 -0.46493092
-4.0535121 11.154495 -0.52979833
-3.9983385 12.715148 -0.67381757
-3.9324939 12.505754 -0.89509374
-3.911622 10.764626 -0.91768765
-3.8611114 14.470457 -1.2879081
-3.8706601 10.652479 -1.1087025
-4.2467918 13.680275 -0.47017992
-4.0092239 11.159875 -0.52935237
-4.0044136 12.899497 -0.68280452
-3.9276352 10.933369 -0.72439337
-3.931591 12.664913 -0.90544796
-3.8849475 10.814538 -0.9207226
-3.8577011 14.673373 -1.304701
-3.8531241 10.726541 -1.1149334
-4.2399588 13.837178 -0.47503525
-3.978992 11.204619 -0.53077948
-4.0097752 13.08597 -0.69189239
-3.9349613 11.081244 -0.73323047
-3.9395118 12.856664 -0.91811824
-3.8419485 10.819311 -0.91992396
-3.8628464 14.915036 -1.3249209
-3.8450878 10.828752 -1.1240849
-4.2254486 13.946082 -0.47831589
-3.9649787 11.277382 -0.53363359
-3.9987631 13.197907 -0.6971432
-4.1510453 11.807261 -0.78040314
-3.9448104 13.019836 -0.92888117
-3.796699 10.799355 -0.91720843
-3.8480177 10.945936 -1.1349889
-4.2235494 14.126179 -0.48395857
-3.9734588 11.435275 -0.54041213
-3.9978547 13.371315 -0.70552427
-4.1077418 11.822395 -0.78040314
-3.9462202 13.198617 -0.94059777
-3.7682154 10.845212 -0.91992396
-3.845109 11.067141 -1.1460876
-4.2322636 14.346708 -0.49097914
-3.9730477 11.570703 -0.54612041
-3.9951632 13.542976 -0.71380436
-3.9288697 13.318252 -0.94809091
-3.7232611 10.843865 -0.91864604
-3.8400702 11.184704 -1.1567969
-4.2067556 14.427099 -0.49327555
-3.980397 11.711766 -0.55218548
-3.997329 13.708868 -0.72188246
-3.6943076 10.87061 -0.91992396
-3.8478239 11.322985 -1.1698427
-4.1334062 14.371342 -0.49084789
-3.9813282 11.856968 -0.55833966
-4.0061326 13.928827 -0.732687
-3.9716432 11.828809 -0.77803832
-3.9346437 13.680269 -0.97193283
-3.655709 10.887857 -0.92024344
-3.8436759 11.448343 -1.1813309
-3.9736993 11.979575 -0.56342357
-4.0133767 14.149032 -0.74349153
-3.9156933 11.805393 -0.77554899
-3.9378378 13.882721 -0.98528433
-3.7613888 11.340182 -0.95730233
-3.8399134 11.577601 -1.1932085
-3.9914997 12.160954 -0.57136166
-4.0341296 14.394295 -0.75570971
-3.922159 11.950397 -0.78426158
-3.9636669 14.142875 -1.0028592
-3.7667751 11.47696 -0.96784496
-3.8494527 11.729561 -1.2076173
-3.9851005 12.293343 -0.57689154
-4.0356069 14.605366 -0.76600933
-3.9702606 14.368869 -1.0178455
-3.8740654 11.95153 -1.0066611
-3.8530803 11.887498 -1.2224156
-3.9848998 12.425663 -0.58251059
-4.0117917 14.698904 -0.77025032
-3.9211845 12.227721 -0.80069113
-3.9981275 14.648838 -1.0367829
-3.6546509 11.397254 -1.1708163
-3.9827592 12.57733 -0.58893239
-3.9179187 12.373318 -0.80927932
-3.9532213 14.696151 -1.039099
-3.9671507 12.528799 -1.0529847
-3.8501854 12.160144 -1.2477285
-3.9873102 12.753937 -0.59651369
-3.9154246 12.524769 -0.81824088
-3.9372644 12.59463 -1.0572976
-3.8525069 12.324262 -1.2631109
-4.0003405 12.938197 -0.60454094
-3.929122 12.708643 -0.82944286
-3.901211 12.618365 -1.058256
-3.8684459 12.513162 -1.2812192
-3.9948826 13.090364 -0.61096275
-3.9302902 12.879514 -0.83964908
-3.8915944 12.752708 -1.0683194
-3.8632224 12.660524 -1.2948493
-3.9854817 13.233098 -0.61693859
-3.9417701 13.088788 -0.85234463
-3.8925426 12.925326 -1.0815775
-3.8604136 12.819451 -1.3096476
-3.9262631 13.187198 -0.85794562
-3.8962903 13.086528 -1.0940371
-3.8627183 12.974597 -1.3242511
-4.0040035 13.629901 -0.63415259
-3.8814504 13.213575 -1.1034615
-3.8622594 13.149093 -1.340607
-4.0012908 13.807605 -0.64173388
-3.9267147 13.551144 -0.87972718
-3.8962486 13.446005 -1.1216714
-3.869436 13.354346 -1.3600785
-4.0151024 14.01987 -0.6510098
-3.9297349 13.722689 -0.89005786
-3.8967974 13.607672 -1.134131
-3.8800666 13.550141 -1.3787711
-4.0185375 14.228694 -0.66001815
-3.9293222 13.913731 -0.90150881
-3.896744 13.798371 -1.1488267
-3.8747339 13.72135 -1.3947376
-4.0511456 14.518375 -0.67286175
-3.9531858 14.168265 -0.91719151
-3.8983819 13.971848 -1.1622446
-3.8845649 13.923265 -1.4140143
-4.0244031 14.629449 -0.67732131
-3.9679358 14.425163 -0.93287426
-3.8931472 14.153275 -1.1761417
-3.8852401 14.125493 -1.4330963
-4.0026522 14.761731 -0.68276203
-3.9714525 14.647678 -0.9463166
-3.8944597 14.36371 -1.1924348
-3.8891723 14.345201 -1.4539307
-3.9434865 14.72757 -0.95067292
-3.9122248 14.610819 -1.2119228
-3.9058635 14.588081 -1.4772965
-3.9074714 14.810114 -1.2272575
-3.899591 14.781291 -1.4954048
