# .PCD v0.7 - Point Cloud Data file format
VERSION 0.7
FIELDS x y z
SIZE 4 4 4
TYPE F F F
COUNT 1 1 1
WIDTH 343
HEIGHT 1
VIEWPOINT 0 0 0 1 0 0 0
POINTS 343
DATA ascii
-5.6911907 13.915973 -1.1143732
-5.6214423 13.890517 -1.1106772
-5.5011806 13.593352 -1.3464291
-5.5770335 13.906258 -1.1105294
-5.4510355 13.592082 -1.3446004
-5.3850212 13.571243 -1.3405774
-5.4377308 13.830667 -1.1015116
-5.3277845 13.551023 -1.3369201
-5.2672529 13.542618 -1.3341771
-5.4338622 14.124738 -0.85433072
-5.2082844 13.537667 -1.3318
-5.3851948 14.130544 -0.85365438
-5.1600547 13.539075 -1.330337
-5.3157611 14.103474 -0.85083628
-5.1005626 13.531805 -1.3277769
-5.2633362 14.120992 -0.85072356
-5.5097246 14.781238 -1.1692196
-5.0481491 13.542944 -1.3270454
-5.2583652 14.244232 -0.85714883
-5.4528995 14.770408 -1.1670021
-4.9979906 13.538185 -1.325034
-5.2068067 14.265285 -0.85726154
-5.4041977 14.805284 -1.1681848
-4.9387765 13.53022 -1.3224739
-5.401197 14.967965 -0.89829284
-5.3566675 14.843752 -1.1696631
-4.8884764 13.546357 -1.322291
-5.2898741 14.804161 -1.1652281
-5.6583247 13.886079 -1.2894503
-4.8351727 13.53164 -1.3193651
-5.2335858 14.817807 -1.1647846
-5.5872722 13.856827 -1.2848238
-4.7755952 13.521102 -1.3166223
-5.1771336 14.805935 -1.162567
-5.5178342 13.809547 -1.2788262
-4.7317791 13.532278 -1.3162565
-5.1156669 14.804074 -1.1609409
-4.6723919 13.521295 -1.3135135
-5.0510607 14.792524 -1.1585755
-5.3678308 13.725286 -1.2673454
-4.6253767 13.545868 -1.314245
-4.7831106 14.153863 -0.84339654
-4.998178 14.789424 -1.1570972
-5.2994871 13.677051 -1.261348
-4.5725961 13.530143 -1.3113191
-4.7229815 14.146676 -0.84193116
-5.2350602 13.659169 -1.2579209
-4.520452 13.539255 -1.3105876
-4.6667218 14.150618 -0.84114212
-5.1729546 13.646589 -1.2550079
-4.4707975 13.555733 -1.3105876
-4.6036606 14.108259 -0.83776039
-4.5076642 13.813254 -1.0769712
-5.126555 13.653446 -1.2541511
-4.4183035 13.539417 -1.3076619
-4.4545588 13.822089 -1.0763798
-5.0626059 13.634784 -1.250724
-4.3637619 13.540356 -1.306199
-4.4644275 14.003242 -1.0893892
-5.0114932 13.628179 -1.2486677
-4.3097081 13.517945 -1.3027245
-4.4220557 14.048048 -1.0916067
-4.9567437 13.633346 -1.2474682
-4.2702994 13.565946 -1.3058332
-4.8932619 13.613917 -1.2440411
-4.2199578 13.579604 -1.3056504
-4.4722228 14.552548 -1.1284174
-4.848464 13.623591 -1.2435271
-4.1714249 13.573756 -1.3038217
-4.4159603 14.559299 -1.1276783
-4.7925477 13.624352 -1.2419848
-4.1181784 13.577519 -1.3027245
-4.3425512 14.508509 -1.122504
-4.7353821 13.621123 -1.2400999
-4.0598202 13.563902 -1.2999816
-4.2789731 14.462253 -0.8513999
-5.4693828 13.880572 -1.018663
-4.2878957 14.491479 -1.1201386
-4.6958089 13.645353 -1.2409567
-4.0194483 13.584229 -1.3007131
-4.2371278 14.516175 -0.85365438
-4.2543139 14.574109 -1.1253129
-4.6406322 13.64738 -1.2395859
-3.9685166 13.595045 -1.3003473
-5.3883047 13.974283 -1.022614
-3.9906049 13.859358 -1.0689881
-4.5855045 13.649186 -1.238215
-3.9329896 13.65926 -1.3051018
-5.4155622 14.177499 -0.76722103
-4.016911 14.118307 -0.82862979
-3.9623287 13.925541 -1.0731275
-4.5451164 13.671088 -1.2389004
-3.914041 13.755835 -1.3131478
-5.3586211 14.184173 -0.76651418
-3.9220386 13.978377 -1.0760841
-4.4875183 13.664937 -1.2368442
-3.8953407 13.883224 -1.3239368
-5.3077335 14.184101 -0.76560539
-5.5308409 14.780321 -1.0775185
-3.8450727 13.871462 -1.0669184
-4.4414878 13.669492 -1.2359874
-3.9006505 14.071964 -1.3407602
-5.2328358 14.14164 -0.76227319
-4.0577898 14.851109 -0.86909747
-5.4662442 14.772423 -1.0754749
-3.7994628 13.904702 -1.0683968
-4.387095 13.672398 -1.2347879
-3.9052193 14.291734 -1.3603268
-5.1741056 14.141966 -0.76126343
-4.0069652 14.879378 -0.86988658
-5.4360595 14.857944 -1.0802432
-3.7484739 13.918534 -1.0683968
-4.3261204 13.654192 -1.2317035
-3.9020138 14.488647 -1.3776989
-4.3477144 16.349096 -0.65522039
-5.1228476 14.139371 -0.76025361
-3.9384854 14.809195 -1.1358091
-5.7156825 13.846702 -1.200262
-4.2659225 13.612574 -1.2267342
-4.3287921 16.521515 -0.66149002
-5.0561724 14.116682 -0.75803214
-4.0123796 15.313879 -0.89367121
-5.3226891 14.860788 -1.077791
-5.6513228 13.834337 -1.1973867
-4.2183566 13.635732 -1.2274196
-4.2951784 16.641766 -0.66566986
-4.0046296 15.516028 -0.90460539
-5.2535353 14.838817 -1.0747937
-3.9928265 15.46918 -1.1841508
-5.5766711 13.795812 -1.1922752
-4.1648593 13.639667 -1.2263916
-3.6863654 14.281875 -1.3542923
-4.277904 16.792679 -0.67116547
-4.9533596 14.131921 -0.75702238
-4.0273414 15.809111 -0.92095023
-5.2016115 14.840183 -1.0737038
-3.990988 15.665262 -1.1981951
-5.5333028 13.813263 -1.1922752
-4.1231408 13.656499 -1.2267342
-3.6301703 14.248996 -1.3500863
-4.2532825 16.955566 -0.67704815
-4.8851852 14.102796 -0.75449795
-4.0378757 16.096855 -0.93684429
-5.130857 14.812013 -1.0702978
-3.9723709 15.834552 -1.2100217
-5.4811683 13.829744 -1.1919557
-4.0741973 13.675339 -1.2270769
-4.2347112 17.1476 -0.68409187
-4.8205256 14.082809 -0.75247842
-4.0214591 16.284081 -0.94687665
-5.0700717 14.81184 -1.0689354
-3.9869986 16.14333 -1.2324926
-5.4115219 13.801483 -1.1878024
-4.0217996 13.682532 -1.2263916
-4.213933 17.29674 -0.68951011
-4.7756186 14.095992 -0.75237745
-5.434896 13.990265 -0.93586147
-3.9674246 16.283672 -1.2422496
-5.3450351 13.75895 -1.1826909
-3.9826865 13.708494 -1.227591
-4.1789308 17.430618 -0.69423175
-4.737236 14.153179 -0.75449795
-4.0269094 16.796526 -0.97505748
-5.3131628 13.826833 -1.1868441
-3.9291222 13.711506 -1.2265629
-4.1475916 17.583921 -0.69972736
-4.6671457 14.115449 -0.75156963
-4.0409589 17.131847 -0.99365687
-5.3492165 14.074511 -0.93884861
-3.9743412 16.848103 -1.2830518
-5.3389425 14.047478 -1.2040956
-3.8972647 13.791012 -1.232389
-4.6451368 14.198385 -0.7552048
-4.0816507 17.550945 -1.0172161
-4.0239563 17.301493 -1.3166101
-5.283546 14.034328 -1.2015399
-3.8742826 13.876119 -1.2389004
-4.5691152 14.141188 -0.75126672
-4.0457873 17.690369 -1.0244304
-3.9929793 17.458061 -1.327402
-5.2230296 14.029311 -1.1994632
-3.8762805 14.082345 -1.256036
-5.2866879 14.337128 -0.68213767
-4.5228424 14.149764 -0.75096381
-5.443728 14.763803 -0.98116714
-5.4010119 14.647955 -1.2508985
-3.8738432 14.248281 -1.2697444
-4.910315 13.317864 -1.3885068
-5.2231541 14.326374 -0.68071061
-4.4583259 14.126245 -0.74884325
-5.4278665 14.888679 -0.98813725
-3.8798728 14.479879 -1.2891076
-4.8553343 13.318941 -1.3867544
-5.1455431 14.275875 -0.67741054
-4.4035497 14.132956 -0.7483384
-5.0224299 13.935071 -1.1868441
-3.8745909 14.675105 -1.305215
-4.7875886 13.284214 -1.3813024
-5.0926099 14.269388 -0.67634022
-4.3620687 14.156264 -0.74884325
-5.2714481 14.771304 -1.256649
-3.8827517 14.895452 -1.3237214
-4.7478385 13.304813 -1.3818865
-5.0283113 14.254043 -0.67473477
-4.3078294 14.164513 -0.74843937
-5.2192001 14.795988 -0.97830445
-4.4414911 14.604003 -1.0422324
-4.8299732 13.692564 -1.1633627
-3.6601393 14.255299 -1.2656319
-4.6864619 13.28646 -1.3781869
-4.9707718 14.257283 -0.67402124
-4.2507172 14.162989 -0.74753058
-5.1879339 14.880989 -0.98266077
-4.3908029 14.62974 -1.0429137
-4.7869744 13.730882 -1.1651199
-3.601028 14.241572 -1.2632329
-4.6338015 13.29227 -1.3770187
-4.909009 14.223723 -0.67170227
-4.2152929 14.206911 -0.74914622
-5.1183667 14.831171 -0.97830445
-4.3243876 14.574596 -1.038009
-4.7340584 13.717585 -1.1627238
-3.8915384 15.596508 -1.3823251
-4.584228 13.284183 -1.3746821
-4.8491044 14.218927 -0.67063195
-4.1502872 14.178175 -0.74682373
-4.263092 14.563539 -1.0361017
-4.679245 13.721636 -1.1616056
-4.5316539 13.289592 -1.3735138
-4.8005767 14.222733 -0.67009681
-4.0918465 14.143174 -0.74429929
-4.0243368 13.909831 -0.98869032
-4.6271887 13.709823 -1.1593693
-4.4886079 13.299991 -1.3731244
-4.7395673 14.213696 -0.6688481
-4.048203 14.186889 -0.74581397
-4.1293697 14.471336 -1.0275186
-4.5762782 13.724799 -1.1592096
-4.4354239 13.303135 -1.3717613
-4.6818137 14.213893 -0.6680454
-4.116838 14.630431 -1.0377365
-4.519083 13.720651 -1.1574525
-4.3841448 13.31174 -1.3709825
-4.6321836 14.213333 -0.66733187
-4.0783391 14.670214 -0.76974547
-4.4790449 13.744258 -1.1582512
-4.3429203 13.327339 -1.3711772
-4.5721002 14.20549 -0.66617239
-4.0646667 14.83147 -0.77741969
-3.8262408 13.961483 -0.9884178
-4.4152026 13.718831 -1.154737
-4.2903852 13.331799 -1.3700089
-4.5187936 14.218345 -0.66599399
-4.0425739 14.965825 -0.78368026
-4.0003495 14.809507 -1.0474095
-4.3691177 13.748221 -1.1558552
-4.24089 13.345537 -1.3698143
-4.4663134 14.207692 -0.6648345
-3.9790044 14.916471 -1.0540853
-4.1929741 13.339806 -1.3678671
-4.4100642 14.210608 -0.66421014
-4.0584087 15.441182 -0.80710685
-4.2600737 13.728138 -1.1517019
-4.1452332 13.358886 -1.3682564
-4.3556094 14.219035 -0.66385341
-4.0663719 15.705399 -0.82013285
-4.0080924 15.480307 -1.0918236
-4.2068095 13.734128 -1.1509033
-4.0950766 13.370183 -1.3678671
-4.3068633 14.219263 -0.66322905
-4.0867486 15.990966 -0.83437055
-3.9974833 15.641681 -1.1023141
-4.1619081 13.741552 -1.1504241
-4.0472832 13.363932 -1.3659199
-4.2570071 14.24261 -0.66358578
-4.0812473 16.216976 -0.84537703
-4.0126858 15.944545 -1.1226138
-4.1092315 13.749074 -1.1497852
-4.0091043 13.414911 -1.3696195
-4.2048817 14.231005 -0.66242629
-4.0817904 16.437143 -0.8561815
-4.2583528 14.412898 -0.93710613
-4.0140309 16.164282 -1.1371914
-4.0660172 13.761915 -1.1497852
-3.9720159 13.444621 -1.371372
-4.1504574 14.238647 -0.66206956
-4.0760612 16.675131 -0.86779386
-4.2228141 14.487817 -0.94096458
-3.9997694 16.363022 -1.1501342
-4.0066237 13.746102 -1.1472293
-3.9305098 13.485843 -1.3740979
-4.106524 14.282567 -0.66340744
-4.0915337 17.008455 -0.884354
-4.0124946 13.95645 -0.90549171
-4.0107055 16.672455 -1.1708425
-3.9567661 13.762611 -1.1473891
-3.9140527 13.614939 -1.3857808
-4.0801997 14.360744 -0.66643995
-4.1127739 17.336073 -0.90071225
-3.9773579 13.999708 -0.90748316
-4.0186453 16.939304 -1.1886899
-3.9440205 13.882366 -1.1563344
-4.0614958 14.49681 -0.672059
-4.1159363 17.636972 -0.91555583
-4.0345292 17.288139 -1.2121232
-3.881819 13.856415 -1.1529799
-4.0503602 14.663744 -0.67910516
-4.049695 17.645094 -1.2361013
-3.8320682 13.874393 -1.1532993
-4.0558119 14.865296 -0.68784595
-4.0617042 14.887918 -0.96224827
-3.7847886 13.872899 -1.1521811
-4.0568166 15.086515 -0.69738942
-3.9920793 14.846803 -0.95863879
-3.7396107 13.907856 -1.1539383
-4.056253 15.307938 -0.70693296
-3.9637098 14.959741 -0.96498656
-3.799412 14.339652 -1.1886011
-4.0647798 15.537096 -0.7169224
-3.7437484 14.311015 -1.1852467
-4.065146 15.774392 -0.72717947
-3.9738641 15.421294 -0.99299145
-3.6768441 14.268654 -1.1806144
-4.0648098 16.015768 -0.73761487
-3.9816384 15.689213 -1.0092965
-3.9295487 15.483959 -1.2799705
-4.0790362 16.286234 -0.74947739
-3.9992507 15.968857 -1.0264728
-3.9356139 15.714757 -1.2980208
-4.0743241 16.524164 -0.75973439
-4.0032911 16.237297 -1.0427779
-3.935735 15.96329 -1.317349
-4.0875587 16.804796 -0.77204287
-3.9472859 16.229342 -1.3382745
-4.0817509 17.052839 -0.78274584
-4.0004702 16.71455 -1.0716541
-3.9429975 16.474422 -1.3572831
-4.0856285 17.349684 -0.79567862
-3.9963701 16.971973 -1.0872123
-3.9447324 16.752678 -1.3790073
-4.0988832 17.654369 -0.80905735
-4.0351186 17.381105 -1.1126034
-4.0238109 17.625412 -1.1272905
