# .PCD v0.7 - Point Cloud Data file format
VERSION 0.7
FIELDS x y z normal_x normal_y normal_z curvature
SIZE 4 4 4 4 4 4 4
TYPE F F F F F F F
COUNT 1 1 1 1 1 1 1
WIDTH 343
HEIGHT 1
VIEWPOINT 0 0 0 1 0 0 0
POINTS 343
DATA ascii
-1.0328355 -1.5713034 -1.1143732 0 0 0 2.2825381e-38
-0.96308708 -1.5967588 -1.1106772 0 0 0 2.2825381e-38
-0.84282541 -1.8939238 -1.3464291 0 0 0 2.2825381e-38
-0.91867828 -1.5810184 -1.1105294 0 0 0 2.2825381e-38
-0.79268026 -1.8951941 -1.3446004 0 0 0 2.2825381e-38
-0.72666597 -1.9160328 -1.3405774 0 0 0 2.2825381e-38
-0.77937555 -1.6566095 -1.1015116 0 0 0 2.2825381e-38
-0.6694293 -1.9362535 -1.3369201 0 0 0 2.2825381e-38
-0.60889769 -1.9446583 -1.3341771 0 0 0 2.2825381e-38
-0.77550697 -1.3625383 -0.85433072 0 0 0 2.2825381e-38
-0.54992914 -1.9496088 -1.3318 0 0 0 2.2825381e-38
-0.72683954 -1.3567324 -0.85365438 0 0 0 2.2825381e-38
-0.50169945 -1.9482012 -1.330337 0 0 0 2.2825381e-38
-0.65740585 -1.3838024 -0.85083628 0 0 0 2.2825381e-38
-0.44220734 -1.955471 -1.3277769 0 0 0 2.2825381e-38
-0.60498095 -1.3662844 -0.85072356 0 0 0 2.2825381e-38
-0.85136938 -0.70603848 -1.1692196 0 0 0 2.2825381e-38
-0.38979387 -1.9443321 -1.3270454 0 0 0 2.2825381e-38
-0.60000992 -1.2430439 -0.85714883 0 0 0 2.2825381e-38
-0.79454422 -0.7168684 -1.1670021 0 0 0 2.2825381e-38
-0.33963537 -1.949091 -1.325034 0 0 0 2.2825381e-38
-0.54845142 -1.2219915 -0.85726154 0 0 0 2.2825381e-38
-0.74584246 -0.68199253 -1.1681848 0 0 0 2.2825381e-38
-0.28042126 -1.957056 -1.3224739 0 0 0 2.2825381e-38
-0.74284172 -0.51931095 -0.89829284 0 0 0 2.2825381e-38
-0.69831228 -0.64352417 -1.1696631 0 0 0 2.2825381e-38
-0.23012114 -1.9409189 -1.322291 0 0 0 2.2825381e-38
-0.63151884 -0.68311501 -1.1652281 0 0 0 2.2825381e-38
-0.99996948 -1.6011972 -1.2894503 0 0 0 2.2825381e-38
-0.17681742 -1.955636 -1.3193651 0 0 0 2.2825381e-38
-0.5752306 -0.66946888 -1.1647846 0 0 0 2.2825381e-38
-0.92891693 -1.6304493 -1.2848238 0 0 0 2.2825381e-38
-0.11723995 -1.9661741 -1.3166223 0 0 0 2.2825381e-38
-0.51877832 -0.68134117 -1.162567 0 0 0 2.2825381e-38
-0.85947895 -1.6777287 -1.2788262 0 0 0 2.2825381e-38
-0.073423862 -1.954998 -1.3162565 0 0 0 2.2825381e-38
-0.45731163 -0.68320179 -1.1609409 0 0 0 2.2825381e-38
-0.014036655 -1.9659815 -1.3135135 0 0 0 2.2825381e-38
-0.39270544 -0.69475174 -1.1585755 0 0 0 2.2825381e-38
-0.70947552 -1.7619905 -1.2673454 0 0 0 2.2825381e-38
0.032978535 -1.9414082 -1.314245 0 0 0 2.2825381e-38
-0.12475538 -1.3334131 -0.84339654 0 0 0 2.2825381e-38
-0.33982277 -0.69785213 -1.1570972 0 0 0 2.2825381e-38
-0.64113188 -1.8102255 -1.261348 0 0 0 2.2825381e-38
0.085759163 -1.9571333 -1.3113191 0 0 0 2.2825381e-38
-0.064626217 -1.3406 -0.84193116 0 0 0 2.2825381e-38
-0.57670498 -1.8281069 -1.2579209 0 0 0 2.2825381e-38
0.13790321 -1.9480209 -1.3105876 0 0 0 2.2825381e-38
-0.0083665848 -1.3366585 -0.84114212 0 0 0 2.2825381e-38
-0.51459932 -1.8406868 -1.2550079 0 0 0 2.2825381e-38
0.1875577 -1.9315434 -1.3105876 0 0 0 2.2825381e-38
0.054694653 -1.3790169 -0.83776039 0 0 0 2.2825381e-38
0.15069103 -1.6740217 -1.0769712 0 0 0 2.2825381e-38
-0.46819973 -1.8338299 -1.2541511 0 0 0 2.2825381e-38
0.24005175 -1.9478588 -1.3076619 0 0 0 2.2825381e-38
0.20379639 -1.6651869 -1.0763798 0 0 0 2.2825381e-38
-0.40425062 -1.8524923 -1.250724 0 0 0 2.2825381e-38
0.29459333 -1.9469204 -1.306199 0 0 0 2.2825381e-38
0.19392776 -1.4840345 -1.0893892 0 0 0 2.2825381e-38
-0.35313797 -1.8590975 -1.2486677 0 0 0 2.2825381e-38
0.34864712 -1.9693308 -1.3027245 0 0 0 2.2825381e-38
0.23629951 -1.4392281 -1.0916067 0 0 0 2.2825381e-38
-0.29838848 -1.8539305 -1.2474682 0 0 0 2.2825381e-38
0.3880558 -1.9213305 -1.3058332 0 0 0 2.2825381e-38
-0.23490667 -1.8733587 -1.2440411 0 0 0 2.2825381e-38
0.43839741 -1.9076719 -1.3056504 0 0 0 2.2825381e-38
0.18613243 -0.93472767 -1.1284174 0 0 0 2.2825381e-38
-0.19010878 -1.8636847 -1.2435271 0 0 0 2.2825381e-38
0.48693037 -1.9135199 -1.3038217 0 0 0 2.2825381e-38
0.24239492 -0.92797661 -1.1276783 0 0 0 2.2825381e-38
-0.13419247 -1.8629236 -1.2419848 0 0 0 2.2825381e-38
0.54017687 -1.9097567 -1.3027245 0 0 0 2.2825381e-38
0.315804 -0.9787674 -1.122504 0 0 0 2.2825381e-38
-0.077026844 -1.8661528 -1.2400999 0 0 0 2.2825381e-38
0.59853506 -1.9233742 -1.2999816 0 0 0 2.2825381e-38
0.37938213 -1.0250235 -0.8513999 0 0 0 2.2825381e-38
-0.81102753 -1.6067038 -1.018663 0 0 0 2.2825381e-38
0.37045956 -0.99579716 -1.1201386 0 0 0 2.2825381e-38
-0.037453651 -1.8419228 -1.2409567 0 0 0 2.2825381e-38
0.63890696 -1.9030466 -1.3007131 0 0 0 2.2825381e-38
0.42122746 -0.97110081 -0.85365438 0 0 0 2.2825381e-38
0.40404129 -0.913167 -1.1253129 0 0 0 2.2825381e-38
0.017723083 -1.8398962 -1.2395859 0 0 0 2.2825381e-38
0.68983865 -1.892231 -1.3003473 0 0 0 2.2825381e-38
-0.72994947 -1.5129929 -1.022614 0 0 0 2.2825381e-38
0.66775036 -1.6279182 -1.0689881 0 0 0 2.2825381e-38
0.072850704 -1.8380899 -1.238215 0 0 0 2.2825381e-38
0.72536564 -1.8280163 -1.3051018 0 0 0 2.2825381e-38
-0.75720692 -1.3097773 -0.76722103 0 0 0 2.2825381e-38
0.64144421 -1.368969 -0.82862979 0 0 0 2.2825381e-38
0.69602656 -1.5617352 -1.0731275 0 0 0 2.2825381e-38
0.11323881 -1.8161879 -1.2389004 0 0 0 2.2825381e-38
0.74431419 -1.7314415 -1.3131478 0 0 0 2.2825381e-38
-0.70026588 -1.3031034 -0.76651418 0 0 0 2.2825381e-38
0.73631668 -1.5088987 -1.0760841 0 0 0 2.2825381e-38
0.17083693 -1.8223391 -1.2368442 0 0 0 2.2825381e-38
0.76301455 -1.6040525 -1.3239368 0 0 0 2.2825381e-38
-0.6493783 -1.303175 -0.76560539 0 0 0 2.2825381e-38
-0.87248564 -0.70695496 -1.0775185 0 0 0 2.2825381e-38
0.81328249 -1.6158142 -1.0669184 0 0 0 2.2825381e-38
0.21686745 -1.8177843 -1.2359874 0 0 0 2.2825381e-38
0.75770473 -1.4153118 -1.3407602 0 0 0 2.2825381e-38
-0.57448053 -1.3456364 -0.76227319 0 0 0 2.2825381e-38
0.60056543 -0.63616753 -0.86909747 0 0 0 2.2825381e-38
-0.80788898 -0.71485329 -1.0754749 0 0 0 2.2825381e-38
0.85889244 -1.5825739 -1.0683968 0 0 0 2.2825381e-38
0.27126026 -1.8148785 -1.2347879 0 0 0 2.2825381e-38
0.75313592 -1.1955423 -1.3603268 0 0 0 2.2825381e-38
-0.51575041 -1.3453102 -0.76126343 0 0 0 2.2825381e-38
0.65139008 -0.60789776 -0.86988658 0 0 0 2.2825381e-38
-0.77770424 -0.62933254 -1.0802432 0 0 0 2.2825381e-38
0.90988135 -1.5687418 -1.0683968 0 0 0 2.2825381e-38
0.33223486 -1.8330841 -1.2317035 0 0 0 2.2825381e-38
0.75634146 -0.99862862 -1.3776989 0 0 0 2.2825381e-38
0.31064081 0.86182022 -0.65522039 0 0 0 2.2825381e-38
-0.46449232 -1.3479052 -0.76025361 0 0 0 2.2825381e-38
0.71986985 -0.67808151 -1.1358091 0 0 0 2.2825381e-38
-1.0573273 -1.6405745 -1.200262 0 0 0 2.2825381e-38
0.39243269 -1.8747025 -1.2267342 0 0 0 2.2825381e-38
0.32956314 1.0342388 -0.66149002 0 0 0 2.2825381e-38
-0.39781713 -1.370594 -0.75803214 0 0 0 2.2825381e-38
0.64597559 -0.17339706 -0.89367121 0 0 0 2.2825381e-38
-0.66433382 -0.62648773 -1.077791 0 0 0 2.2825381e-38
-0.99296761 -1.6529388 -1.1973867 0 0 0 2.2825381e-38
0.43999863 -1.8515444 -1.2274196 0 0 0 2.2825381e-38
0.36317682 1.1544895 -0.66566986 0 0 0 2.2825381e-38
0.65372562 0.028752327 -0.90460539 0 0 0 2.2825381e-38
-0.59518003 -0.64845943 -1.0747937 0 0 0 2.2825381e-38
0.66552877 -0.01809597 -1.1841508 0 0 0 2.2825381e-38
-0.91831589 -1.6914644 -1.1922752 0 0 0 2.2825381e-38
0.49349594 -1.8476095 -1.2263916 0 0 0 2.2825381e-38
0.97198987 -1.2054014 -1.3542923 0 0 0 2.2825381e-38
0.3804512 1.3054028 -0.67116547 0 0 0 2.2825381e-38
-0.29500437 -1.3553553 -0.75702238 0 0 0 2.2825381e-38
0.63101387 0.32183456 -0.92095023 0 0 0 2.2825381e-38
-0.54325628 -0.64709282 -1.0737038 0 0 0 2.2825381e-38
0.66736722 0.17798615 -1.1981951 0 0 0 2.2825381e-38
-0.87494755 -1.6740131 -1.1922752 0 0 0 2.2825381e-38
0.53521442 -1.8307772 -1.2267342 0 0 0 2.2825381e-38
1.0281849 -1.2382803 -1.3500863 0 0 0 2.2825381e-38
0.40507269 1.4682903 -0.67704815 0 0 0 2.2825381e-38
-0.22683001 -1.3844805 -0.75449795 0 0 0 2.2825381e-38
0.62047958 0.60957909 -0.93684429 0 0 0 2.2825381e-38
-0.47250175 -0.6752634 -1.0702978 0 0 0 2.2825381e-38
0.68598437 0.34727573 -1.2100217 0 0 0 2.2825381e-38
-0.82281303 -1.6575317 -1.1919557 0 0 0 2.2825381e-38
0.58415794 -1.8119373 -1.2270769 0 0 0 2.2825381e-38
0.42364407 1.6603241 -0.68409187 0 0 0 2.2825381e-38
-0.16217041 -1.4044666 -0.75247842 0 0 0 2.2825381e-38
0.63689613 0.79680443 -0.94687665 0 0 0 2.2825381e-38
-0.41171646 -0.67543602 -1.0689354 0 0 0 2.2825381e-38
0.67135668 0.65605354 -1.2324926 0 0 0 2.2825381e-38
-0.75316668 -1.6857929 -1.1878024 0 0 0 2.2825381e-38
0.63655567 -1.8047438 -1.2263916 0 0 0 2.2825381e-38
0.44442225 1.8094635 -0.68951011 0 0 0 2.2825381e-38
-0.11726332 -1.391284 -0.75237745 0 0 0 2.2825381e-38
-0.77654076 -1.4970112 -0.93586147 0 0 0 2.2825381e-38
0.6909306 0.79639626 -1.2422496 0 0 0 2.2825381e-38
-0.68667984 -1.7283258 -1.1826909 0 0 0 2.2825381e-38
0.67566872 -1.7787819 -1.227591 0 0 0 2.2825381e-38
0.47942448 1.9433422 -0.69423175 0 0 0 2.2825381e-38
-0.078880787 -1.3340969 -0.75449795 0 0 0 2.2825381e-38
0.63144588 1.3092499 -0.97505748 0 0 0 2.2825381e-38
-0.65480757 -1.6604433 -1.1868441 0 0 0 2.2825381e-38
0.72923303 -1.7757702 -1.2265629 0 0 0 2.2825381e-38
0.51076365 2.0966454 -0.69972736 0 0 0 2.2825381e-38
-0.008790493 -1.3718271 -0.75156963 0 0 0 2.2825381e-38
0.61739635 1.6445713 -0.99365687 0 0 0 2.2825381e-38
-0.69086123 -1.4127655 -0.93884861 0 0 0 2.2825381e-38
0.68401408 1.3608265 -1.2830518 0 0 0 2.2825381e-38
-0.68058729 -1.4397984 -1.2040956 0 0 0 2.2825381e-38
0.76109052 -1.6962643 -1.232389 0 0 0 2.2825381e-38
0.013218403 -1.2888908 -0.7552048 0 0 0 2.2825381e-38
0.5767045 2.0636692 -1.0172161 0 0 0 2.2825381e-38
0.63439894 1.8142166 -1.3166101 0 0 0 2.2825381e-38
-0.62519073 -1.4529476 -1.2015399 0 0 0 2.2825381e-38
0.78407264 -1.6111574 -1.2389004 0 0 0 2.2825381e-38
0.089240074 -1.3460884 -0.75126672 0 0 0 2.2825381e-38
0.6125679 2.2030926 -1.0244304 0 0 0 2.2825381e-38
0.66537595 1.9707851 -1.327402 0 0 0 2.2825381e-38
-0.56467438 -1.4579649 -1.1994632 0 0 0 2.2825381e-38
0.78207469 -1.4049311 -1.256036 0 0 0 2.2825381e-38
-0.62833261 -1.1501484 -0.68213767 0 0 0 2.2825381e-38
0.13551283 -1.337512 -0.75096381 0 0 0 2.2825381e-38
-0.78537273 -0.72347355 -0.98116714 0 0 0 2.2825381e-38
-0.74265671 -0.83932114 -1.2508985 0 0 0 2.2825381e-38
0.78451204 -1.2389956 -1.2697444 0 0 0 2.2825381e-38
-0.2519598 -2.1694117 -1.3885068 0 0 0 2.2825381e-38
-0.56479883 -1.160902 -0.68071061 0 0 0 2.2825381e-38
0.20002937 -1.3610315 -0.74884325 0 0 0 2.2825381e-38
-0.76951122 -0.59859753 -0.98813725 0 0 0 2.2825381e-38
0.77848244 -1.0073967 -1.2891076 0 0 0 2.2825381e-38
-0.19697905 -2.168335 -1.3867544 0 0 0 2.2825381e-38
-0.48718786 -1.211401 -0.67741054 0 0 0 2.2825381e-38
0.25480556 -1.3543205 -0.7483384 0 0 0 2.2825381e-38
-0.36407471 -1.5522051 -1.1868441 0 0 0 2.2825381e-38
0.78376436 -0.81217098 -1.305215 0 0 0 2.2825381e-38
-0.12923336 -2.2030621 -1.3813024 0 0 0 2.2825381e-38
-0.43425465 -1.2178879 -0.67634022 0 0 0 2.2825381e-38
0.29628658 -1.3310118 -0.74884325 0 0 0 2.2825381e-38
-0.6130929 -0.71597195 -1.256649 0 0 0 2.2825381e-38
0.77560353 -0.59182453 -1.3237214 0 0 0 2.2825381e-38
-0.089483261 -2.1824627 -1.3818865 0 0 0 2.2825381e-38
-0.36995602 -1.2332335 -0.67473477 0 0 0 2.2825381e-38
0.35052586 -1.3227634 -0.74843937 0 0 0 2.2825381e-38
-0.5608449 -0.69128799 -0.97830445 0 0 0 2.2825381e-38
0.21686411 -0.88327312 -1.0422324 0 0 0 2.2825381e-38
-0.17161798 -1.7947121 -1.1633627 0 0 0 2.2825381e-38
0.99821591 -1.2319775 -1.2656319 0 0 0 2.2825381e-38
-0.028106689 -2.2008162 -1.3781869 0 0 0 2.2825381e-38
-0.31241655 -1.2299929 -0.67402124 0 0 0 2.2825381e-38
0.40763807 -1.3242874 -0.74753058 0 0 0 2.2825381e-38
-0.52957869 -0.606287 -0.98266077 0 0 0 2.2825381e-38
0.26755238 -0.85753632 -1.0429137 0 0 0 2.2825381e-38
-0.12861919 -1.7563944 -1.1651199 0 0 0 2.2825381e-38
1.0573273 -1.2457037 -1.2632329 0 0 0 2.2825381e-38
0.024553776 -2.1950064 -1.3770187 0 0 0 2.2825381e-38
-0.25065374 -1.2635527 -0.67170227 0 0 0 2.2825381e-38
0.44306231 -1.280365 -0.74914622 0 0 0 2.2825381e-38
-0.46001148 -0.65610504 -0.97830445 0 0 0 2.2825381e-38
0.33396769 -0.91267967 -1.038009 0 0 0 2.2825381e-38
-0.075703144 -1.7696915 -1.1627238 0 0 0 2.2825381e-38
0.76681685 0.10923195 -1.3823251 0 0 0 2.2825381e-38
0.074127197 -2.2030935 -1.3746821 0 0 0 2.2825381e-38
-0.19074917 -1.2683487 -0.67063195 0 0 0 2.2825381e-38
0.50806808 -1.3091011 -0.74682373 0 0 0 2.2825381e-38
0.3952632 -0.92373753 -1.0361017 0 0 0 2.2825381e-38
-0.020889759 -1.7656403 -1.1616056 0 0 0 2.2825381e-38
0.12670135 -2.1976843 -1.3735138 0 0 0 2.2825381e-38
-0.14222145 -1.2645435 -0.67009681 0 0 0 2.2825381e-38
0.56650877 -1.3441019 -0.74429929 0 0 0 2.2825381e-38
0.63401842 -1.577445 -0.98869032 0 0 0 2.2825381e-38
0.031166553 -1.7774534 -1.1593693 0 0 0 2.2825381e-38
0.16974735 -2.1872854 -1.3731244 0 0 0 2.2825381e-38
-0.081212044 -1.2735806 -0.6688481 0 0 0 2.2825381e-38
0.61015224 -1.3003874 -0.74581397 0 0 0 2.2825381e-38
0.5289855 -1.0159397 -1.0275186 0 0 0 2.2825381e-38
0.082077026 -1.7624769 -1.1592096 0 0 0 2.2825381e-38
0.22293139 -2.1841412 -1.3717613 0 0 0 2.2825381e-38
-0.023458481 -1.2733831 -0.6680454 0 0 0 2.2825381e-38
0.54151726 -0.8568449 -1.0377365 0 0 0 2.2825381e-38
0.13927221 -1.7666254 -1.1574525 0 0 0 2.2825381e-38
0.27421045 -2.1755362 -1.3709825 0 0 0 2.2825381e-38
0.026171684 -1.2739429 -0.66733187 0 0 0 2.2825381e-38
0.58001614 -0.81706238 -0.76974547 0 0 0 2.2825381e-38
0.17931032 -1.7430182 -1.1582512 0 0 0 2.2825381e-38
0.31543493 -2.1599369 -1.3711772 0 0 0 2.2825381e-38
0.086255074 -1.281786 -0.66617239 0 0 0 2.2825381e-38
0.59368849 -0.65580654 -0.77741969 0 0 0 2.2825381e-38
0.83211446 -1.5257931 -0.9884178 0 0 0 2.2825381e-38
0.24315262 -1.768445 -1.154737 0 0 0 2.2825381e-38
0.36796999 -2.1554775 -1.3700089 0 0 0 2.2825381e-38
0.13956165 -1.2689314 -0.66599399 0 0 0 2.2825381e-38
0.61578131 -0.521451 -0.78368026 0 0 0 2.2825381e-38
0.65800571 -0.67776871 -1.0474095 0 0 0 2.2825381e-38
0.2892375 -1.7390547 -1.1558552 0 0 0 2.2825381e-38
0.41746521 -2.1417389 -1.3698143 0 0 0 2.2825381e-38
0.19204187 -1.2795839 -0.6648345 0 0 0 2.2825381e-38
0.67935085 -0.57080555 -1.0540853 0 0 0 2.2825381e-38
0.46538115 -2.1474705 -1.3678671 0 0 0 2.2825381e-38
0.24829102 -1.2766685 -0.66421014 0 0 0 2.2825381e-38
0.5999465 -0.046093941 -0.80710685 0 0 0 2.2825381e-38
0.39828157 -1.7591381 -1.1517019 0 0 0 2.2825381e-38
0.51312208 -2.1283903 -1.3682564 0 0 0 2.2825381e-38
0.30274582 -1.2682409 -0.66385341 0 0 0 2.2825381e-38
0.59198332 0.21812248 -0.82013285 0 0 0 2.2825381e-38
0.65026283 -0.0069694519 -1.0918236 0 0 0 2.2825381e-38
0.45154572 -1.7531481 -1.1509033 0 0 0 2.2825381e-38
0.56327868 -2.1170931 -1.3678671 0 0 0 2.2825381e-38
0.35149193 -1.268013 -0.66322905 0 0 0 2.2825381e-38
0.57160664 0.50368977 -0.83437055 0 0 0 2.2825381e-38
0.66087198 0.15440464 -1.1023141 0 0 0 2.2825381e-38
0.49644709 -1.7457237 -1.1504241 0 0 0 2.2825381e-38
0.61107206 -2.1233444 -1.3659199 0 0 0 2.2825381e-38
0.40134811 -1.2446661 -0.66358578 0 0 0 2.2825381e-38
0.57710791 0.72970009 -0.84537703 0 0 0 2.2825381e-38
0.64566946 0.45726871 -1.1226138 0 0 0 2.2825381e-38
0.54912376 -1.7382021 -1.1497852 0 0 0 2.2825381e-38
0.64925098 -2.0723648 -1.3696195 0 0 0 2.2825381e-38
0.45347357 -1.2562714 -0.66242629 0 0 0 2.2825381e-38
0.57656479 0.94986725 -0.8561815 0 0 0 2.2825381e-38
0.40000248 -1.074378 -0.93710613 0 0 0 2.2825381e-38
0.6443243 0.67700577 -1.1371914 0 0 0 2.2825381e-38
0.59233809 -1.7253609 -1.1497852 0 0 0 2.2825381e-38
0.68633938 -2.042655 -1.371372 0 0 0 2.2825381e-38
0.50789785 -1.2486286 -0.66206956 0 0 0 2.2825381e-38
0.58229399 1.1878548 -0.86779386 0 0 0 2.2825381e-38
0.43554115 -0.99945927 -0.94096458 0 0 0 2.2825381e-38
0.65858579 0.87574577 -1.1501342 0 0 0 2.2825381e-38
0.65173149 -1.7411737 -1.1472293 0 0 0 2.2825381e-38
0.72784543 -2.0014334 -1.3740979 0 0 0 2.2825381e-38
0.55183125 -1.2047091 -0.66340744 0 0 0 2.2825381e-38
0.56682158 1.5211792 -0.884354 0 0 0 2.2825381e-38
0.64586067 -1.5308256 -0.90549171 0 0 0 2.2825381e-38
0.64764977 1.1851788 -1.1708425 0 0 0 2.2825381e-38
0.70158911 -1.7246647 -1.1473891 0 0 0 2.2825381e-38
0.74430251 -1.8723373 -1.3857808 0 0 0 2.2825381e-38
0.57815552 -1.1265316 -0.66643995 0 0 0 2.2825381e-38
0.54558134 1.8487968 -0.90071225 0 0 0 2.2825381e-38
0.68099737 -1.4875679 -0.90748316 0 0 0 2.2825381e-38
0.63970995 1.4520283 -1.1886899 0 0 0 2.2825381e-38
0.71433473 -1.6049099 -1.1563344 0 0 0 2.2825381e-38
0.59685946 -0.99046612 -0.672059 0 0 0 2.2825381e-38
0.54241896 2.1496964 -0.91555583 0 0 0 2.2825381e-38
0.62382603 1.8008633 -1.2121232 0 0 0 2.2825381e-38
0.77653623 -1.6308613 -1.1529799 0 0 0 2.2825381e-38
0.60799503 -0.8235321 -0.67910516 0 0 0 2.2825381e-38
0.60866022 2.1578178 -1.2361013 0 0 0 2.2825381e-38
0.82628703 -1.6128826 -1.1532993 0 0 0 2.2825381e-38
0.60254335 -0.62197971 -0.68784595 0 0 0 2.2825381e-38
0.59665108 -0.5993576 -0.96224827 0 0 0 2.2825381e-38
0.87356663 -1.614377 -1.1521811 0 0 0 2.2825381e-38
0.60153866 -0.40076065 -0.69738942 0 0 0 2.2825381e-38
0.66627598 -0.64047337 -0.95863879 0 0 0 2.2825381e-38
0.91874456 -1.5794201 -1.1539383 0 0 0 2.2825381e-38
0.60210228 -0.17933846 -0.70693296 0 0 0 2.2825381e-38
0.6946454 -0.52753544 -0.96498656 0 0 0 2.2825381e-38
0.85894322 -1.147624 -1.1886011 0 0 0 2.2825381e-38
0.59357548 0.049819946 -0.7169224 0 0 0 2.2825381e-38
0.91460681 -1.1762609 -1.1852467 0 0 0 2.2825381e-38
0.59320927 0.28711605 -0.72717947 0 0 0 2.2825381e-38
0.68449116 -0.065981865 -0.99299145 0 0 0 2.2825381e-38
0.98151112 -1.2186222 -1.1806144 0 0 0 2.2825381e-38
0.59354544 0.52849197 -0.73761487 0 0 0 2.2825381e-38
0.6767168 0.20193672 -1.0092965 0 0 0 2.2825381e-38
0.7288065 -0.0033168793 -1.2799705 0 0 0 2.2825381e-38
0.579319 0.79895782 -0.74947739 0 0 0 2.2825381e-38
0.65910459 0.48158073 -1.0264728 0 0 0 2.2825381e-38
0.72274137 0.22748089 -1.2980208 0 0 0 2.2825381e-38
0.58403111 1.0368881 -0.75973439 0 0 0 2.2825381e-38
0.65506411 0.75002098 -1.0427779 0 0 0 2.2825381e-38
0.72262025 0.47601414 -1.317349 0 0 0 2.2825381e-38
0.57079649 1.3175201 -0.77204287 0 0 0 2.2825381e-38
0.71106935 0.74206543 -1.3382745 0 0 0 2.2825381e-38
0.57660437 1.5655632 -0.78274584 0 0 0 2.2825381e-38
0.65788507 1.2272739 -1.0716541 0 0 0 2.2825381e-38
0.71535778 0.98714638 -1.3572831 0 0 0 2.2825381e-38
0.57272673 1.8624077 -0.79567862 0 0 0 2.2825381e-38
0.66198516 1.4846973 -1.0872123 0 0 0 2.2825381e-38
0.71362281 1.2654018 -1.3790073 0 0 0 2.2825381e-38
0.55947208 2.1670933 -0.80905735 0 0 0 2.2825381e-38
0.62323666 1.8938293 -1.1126034 0 0 0 2.2825381e-38
0.63454437 2.1381359 -1.1272905 0 0 0 2.2825381e-38
