# .PCD v0.7 - Point Cloud Data file format
VERSION 0.7
FIELDS x y z
SIZE 4 4 4
TYPE F F F
COUNT 1 1 1
WIDTH 663
HEIGHT 1
VIEWPOINT 0 0 0 1 0 0 0
POINTS 663
DATA ascii
-5.6365047 11.637372 -0.95840824
-5.5783224 11.610078 -0.95471239
-5.5391607 11.637649 -0.95530373
-5.424953 11.397701 -1.1589932
-5.3653059 11.379678 -1.1551532
-5.4319358 11.615461 -0.95042521
-5.3168736 11.369416 -1.1524101
-5.3918414 11.640721 -0.95086867
-5.2600999 11.356298 -1.1491187
-5.2077694 11.336571 -1.1454613
-5.387012 11.841523 -0.734393
-5.2604465 11.562778 -0.94155514
-5.14639 11.312075 -1.1410726
-5.3599782 11.8976 -0.73664749
-5.2024651 11.547429 -0.93874627
-5.1016226 11.323598 -1.1403412
-5.1466365 11.520011 -0.93519825
-5.0570869 11.319567 -1.1383296
-5.1084137 11.547916 -0.93593746
-5.0099249 11.325275 -1.1370496
-5.0580521 11.548293 -0.93445909
-4.9492049 11.299779 -1.1326609
-5.1354814 11.826599 -0.72785509
-5.2092385 11.995883 -0.96934795
-4.9113016 11.309791 -1.1321123
-5.2671733 12.252601 -0.75287968
-5.3976207 12.555446 -1.012959
-5.6033707 11.606634 -1.1083275
-4.8658829 11.318567 -1.1311979
-5.3951344 11.1753 -1.2867715
-5.3508735 11.083619 -1.4939677
-5.3496776 12.571316 -0.77125359
-5.3507853 12.57331 -1.0128112
-5.5487566 11.601926 -1.1059285
-4.8204665 11.327163 -1.1302836
-5.3283896 11.141159 -1.2805831
-5.3633251 11.214207 -1.5089097
-5.3613806 12.709488 -0.77869332
-5.3042817 12.573519 -1.0114807
-5.4858041 11.563491 -1.1006166
-4.7778902 11.325735 -1.1286378
-5.2720456 11.112911 -1.2754261
-5.2463727 11.058795 -1.4857736
-5.1136427 12.247365 -0.51403642
-5.2343378 12.535819 -1.0068978
-4.7217669 11.308252 -1.1251634
-5.2185879 11.105152 -1.272332
-5.2505589 11.173186 -1.4985466
-5.0529795 12.209818 -0.51179177
-5.2010312 12.566944 -1.0080805
-5.3707695 11.522902 -1.0932482
-4.6816478 11.311989 -1.1240662
-5.1660256 11.083628 -1.268
-5.1642671 11.079853 -1.4838456
-5.0256152 12.270792 -0.51357204
-5.1383052 12.545317 -1.0048281
-5.1086917 11.066364 -1.2638744
-5.0686998 10.979734 -1.4679395
-4.9828587 12.294686 -0.51380426
-5.0915403 12.562217 -1.0046803
-5.2364454 11.453228 -1.0829669
-4.5843878 11.310933 -1.1205918
-5.0614796 11.07054 -1.2622242
-5.0275974 10.996432 -1.4676985
-4.9367609 12.291735 -0.51303017
-4.7071142 11.719951 -0.71297556
-5.046103 12.563344 -1.0034976
-5.1773982 11.418807 -1.078169
-4.5451193 11.316039 -1.1196774
-5.0086031 11.046527 -1.2576861
-5.0184426 11.068229 -1.4751695
-4.8658452 12.244742 -0.51032108
-4.7017345 11.831764 -0.71872449
-4.9911828 12.559512 -1.0017236
-5.1281657 11.421347 -1.0766268
-4.4969935 11.315964 -1.1180317
-4.9631925 11.053922 -1.2564484
-4.9721489 11.073869 -1.4734825
-4.8019214 12.214136 -0.50830859
-4.6524925 11.83405 -0.71782267
-4.9509549 12.592571 -1.0029063
-5.0716987 11.40729 -1.0735424
-4.4547596 11.330517 -1.1178489
-4.9121385 11.048408 -1.2537668
-4.9049101 11.032149 -1.4655294
-4.7432156 12.17702 -0.5061413
-4.6029711 11.816977 -0.71590638
-4.5008826 11.554294 -0.91908437
-5.0229754 11.393994 -1.0708007
-4.4010692 11.298061 -1.1132772
-4.8653674 11.03648 -1.2506726
-4.8550105 11.012987 -1.4609504
-4.6920857 12.177539 -0.50544465
-4.556757 11.826315 -0.71545547
-4.446312 11.539073 -0.9165712
-4.9939346 11.441548 -1.0735424
-4.3567657 11.306683 -1.1125457
-4.816926 11.036006 -1.2486098
-4.7764902 10.943364 -1.4493823
-4.6409779 12.158611 -0.50405139
-4.4782805 11.732371 -0.70891756
-4.4157295 11.567892 -0.91775388
-4.9460945 11.429749 -1.0709721
-4.3176718 11.31101 -1.1116314
-4.7680106 11.018222 -1.2448968
-4.7610116 11.002048 -1.4551663
-4.5766196 12.123188 -0.5018841
-4.4246702 11.720684 -0.70722669
-4.3627343 11.556009 -0.91553634
-4.9018154 11.442306 -1.0704579
-4.2656345 11.29881 -1.1088885
-4.7205448 11.019166 -1.2430402
-4.6635818 10.886197 -1.4375733
-4.5405431 12.162349 -0.50281292
-4.3802853 11.733081 -0.70700121
-4.4040647 11.796147 -0.93327641
-4.8512869 11.440016 -1.068573
-4.2269802 11.321832 -1.10962
-4.672359 11.018079 -1.2409774
-4.6197748 10.894077 -1.4363683
-4.4820929 12.141412 -0.50126487
-4.3372521 11.749057 -0.70700121
-4.3552737 11.797241 -0.93209374
-4.8100958 11.459557 -1.0687444
-4.1826959 11.329775 -1.1088885
-4.6242452 11.016787 -1.2389146
-4.6174679 11.000641 -1.4481773
-4.4336343 12.127278 -0.50010383
-4.2818079 11.711988 -0.70395768
-4.751873 11.421259 -1.0637751
-4.1422949 11.329766 -1.1076084
-4.5888481 11.029424 -1.2387084
-4.5752587 10.996762 -1.4457673
-4.3857594 12.134049 -0.49971679
-4.2408886 11.733237 -0.70429587
-5.4061713 11.648727 -0.87683767
-4.2647018 11.798476 -0.92987627
-4.6963234 11.405433 -1.0606908
-4.1034493 11.352365 -1.1083399
-4.5400605 11.025934 -1.2364393
-4.5205603 10.978576 -1.4411883
-4.3489642 12.15153 -0.49987161
-4.2019882 11.740862 -0.70395768
-5.3820639 11.692842 -0.87888122
-4.3223834 12.076596 -0.95072085
-4.6521873 11.399836 -1.0588058
-4.0583687 11.338947 -1.1057798
-4.5061507 11.041985 -1.2366456
-4.4845471 10.989046 -1.4407064
-4.3077302 12.176809 -0.50025862
-5.4002876 11.846561 -0.65816617
-4.1582618 11.754302 -0.70384496
-5.3010993 11.628972 -0.8726142
-4.2880697 12.120563 -0.95293838
-4.6036582 11.400181 -1.0572636
-4.0214319 11.366889 -1.1070598
-4.4596906 11.043669 -1.2349954
-4.4234242 10.953862 -1.4339583
-4.2577939 12.177424 -0.49963939
-5.3584752 11.869916 -0.65836811
-4.1111979 11.758154 -0.70316863
-5.2223177 11.568304 -0.86661971
-4.2903585 12.269873 -0.96343458
-4.5529714 11.394773 -1.0552074
-3.9764564 11.372152 -1.1061455
-4.4140167 11.047009 -1.2335514
-4.3876667 10.981063 -1.4354043
-4.2169018 12.183186 -0.49932978
-5.312181 11.866637 -0.65725738
-4.2146616 12.176713 -0.72740418
-5.1737199 11.557335 -0.8645761
-4.2544003 12.29083 -0.96402591
-4.5200853 11.416431 -1.0558927
-3.9394071 11.380824 -1.1057798
-4.380022 11.062672 -1.2337576
-4.3721499 11.042789 -1.4416703
-4.1851549 12.236379 -0.50087786
-5.2540822 11.853158 -0.65543979
-4.1861587 12.239313 -0.73022223
-5.1183882 11.547033 -0.86239624
-4.4745779 11.423644 -1.0550359
-3.8996015 11.40084 -1.1063284
-4.3329158 11.06198 -1.2319012
-4.32513 11.042102 -1.4395013
-4.1460366 12.268676 -0.50157446
-5.1929426 11.832096 -0.65321833
-3.9852865 11.792994 -0.70271772
-5.0840507 11.583987 -0.86375862
-3.9157822 11.586655 -0.90651846
-4.4305182 11.434394 -1.0545219
-3.8705423 11.452792 -1.1099857
-4.2966552 11.088916 -1.2331388
-4.2466106 10.959761 -1.4267282
-4.1024022 12.266478 -0.50095528
-5.1525574 11.841025 -0.65281445
-3.963418 11.850905 -0.70542312
-5.2363229 12.033525 -0.89604741
-4.035625 12.066109 -0.94303346
-5.67097 11.611775 -1.0354136
-4.3952885 11.450116 -1.0546932
-3.8680243 11.565001 -1.1196774
-4.256094 11.087502 -1.2314886
-4.2178507 10.987876 -1.4286562
-4.0755963 12.336463 -0.50319993
-5.1059623 11.852493 -0.65241051
-5.4242792 12.591405 -0.93610185
-3.8681095 11.707732 -0.91391015
-5.6136112 11.601974 -1.0326982
-4.3419757 11.436342 -1.0519515
-3.8624732 11.690674 -1.1304665
-5.4329963 11.229187 -1.2202737
-4.2055421 11.07699 -1.2286006
-4.1803689 11.010686 -1.4296203
-4.0452328 12.396915 -0.50505763
-5.0397635 11.817845 -0.64948219
-5.4094019 12.684618 -0.94155145
-3.7868094 11.604272 -0.90474445
-5.5400281 11.557753 -1.0269476
-4.3035326 11.461508 -1.0528084
-3.8560526 11.81646 -1.1412555
-5.3737354 11.21133 -1.2161847
-4.1684113 11.101642 -1.229632
-4.2020984 11.19136 -1.4510694
-4.0547714 12.559809 -0.51117253
-5.1006107 12.065434 -0.66220528
-3.7533989 11.625601 -0.9054836
-5.5002666 11.567898 -1.0263087
-4.2570853 11.446956 -1.050238
-3.864804 11.970662 -1.1549703
-5.3128467 11.174228 -1.2103434
-4.1251926 11.092307 -1.2271568
-4.1330075 11.113321 -1.4392604
-4.037847 12.665982 -0.51488787
-4.0089779 12.575425 -0.74510175
-5.2667103 12.586773 -0.93160594
-3.7101579 11.63738 -0.90533578
-4.2082238 11.44378 -1.0485245
-3.8523612 12.083419 -1.1644793
-5.2608299 11.170215 -1.2078121
-4.0858827 11.111087 -1.2275692
-4.0723758 11.074356 -1.4322712
-4.0479212 12.836802 -0.52131236
-3.9658482 12.576531 -0.74442542
-5.2095604 12.560864 -0.92847246
-3.6747794 11.652782 -0.90563148
-5.3969297 11.552688 -1.0216763
-4.1695242 11.449454 -1.047839
-3.8640974 12.253113 -1.179657
-5.2147598 11.163242 -1.2052808
-4.0475526 11.114522 -1.2265378
-4.0355263 11.081498 -1.4315482
-4.0424271 12.985124 -0.5267306
-4.8306355 11.768943 -0.64312065
-3.9482162 12.682498 -0.74983615
-5.4610476 11.802555 -0.81089735
-5.1581836 12.566953 -0.92751873
-3.9101107 12.559322 -0.97496563
-4.1255069 11.459035 -1.047325
-3.8570511 12.388895 -1.1913602
-5.1646152 11.162409 -1.2031388
-4.0034194 11.119924 -1.2255064
-4.0056443 11.126103 -1.4354043
-4.0400095 13.146949 -0.5326907
-4.8092666 11.840237 -0.64604896
-5.364531 11.706353 -0.80293155
-5.1023273 12.561742 -0.92574763
-3.9021361 12.697494 -0.98457485
-4.0881567 11.48722 -1.0485245
-3.8619323 12.566671 -1.2070866
-5.1112304 11.154119 -1.2002182
-3.9713068 11.158886 -1.2281882
-3.9941282 11.223012 -1.4460083
-4.0451698 13.31255 -0.53888297
-4.7489238 11.797845 -0.64291871
-3.9552665 13.01668 -0.76798457
-5.350853 11.774033 -0.80641657
-5.061348 12.574007 -0.92547518
-3.9016607 12.839458 -0.99462754
-5.2146187 11.474262 -1.0098557
-4.0414529 11.469936 -1.0457828
-3.6382899 11.972767 -1.1489358
-5.0605164 11.135692 -1.1965187
-3.9335861 11.163802 -1.227363
-4.0457158 13.491916 -0.54553968
-5.3768473 11.946735 -0.58482957
-4.7278228 11.870842 -0.64594799
-3.9482527 13.166889 -0.77598798
-5.3052053 11.788104 -0.80604321
-5.0152283 12.592473 -0.92547518
-5.2019825 11.558744 -1.0156063
-4.0013523 11.490317 -1.0462968
-3.5886624 11.966945 -1.1471071
-5.0123162 11.137828 -1.1947662
-3.9011474 11.202567 -1.2300446
-3.8889143 11.167439 -1.4354043
-4.0432997 13.665713 -0.55196416
-5.3208246 11.938988 -0.58349174
-4.682085 11.882515 -0.64564508
-3.9617186 13.389981 -0.78827482
-4.5469685 11.539607 -0.84686494
-3.9613659 13.387931 -1.0348384
-5.204216 11.677887 -1.0243918
-3.9455945 11.465338 -1.0426984
-3.6199336 12.234017 -1.1714281
-4.9560666 11.121579 -1.1910666
-3.8723609 11.252531 -1.233964
-3.8524799 11.194759 -1.4370914
-4.0553236 13.866327 -0.55954969
-5.2832909 11.955645 -0.58349174
-4.639647 11.884141 -0.64493823
-3.9723208 13.582517 -0.7988708
-4.5048881 11.538965 -0.84577501
-3.9153676 13.386909 -1.0338036
-5.1618624 11.681414 -1.0232736
-3.9037733 11.4607 -1.0411562
-3.8722043 13.23933 -1.2665174
-4.9170799 11.127991 -1.190093
-3.8466125 11.292887 -1.2370582
-3.8352163 11.25943 -1.4438393
-4.0465736 14.027032 -0.56543237
-5.2242188 11.940149 -0.58179706
-3.9712183 13.76582 -0.80879045
-5.1310654 11.727801 -0.7982018
-4.454658 11.534924 -0.84427643
-3.9221165 13.594724 -1.0487348
-5.0271173 11.490212 -1.0049039
-3.8725464 11.507037 -1.0440692
-3.8772047 13.439051 -1.2842553
-4.8619003 11.113113 -1.1865882
-3.8369219 11.401181 -1.2473722
-3.8281193 11.375025 -1.4568534
-4.0454502 14.218613 -0.57255346
-5.1708908 11.937217 -0.5807268
-3.9797533 13.987707 -0.82096457
-5.2205434 12.052419 -0.81898767
-4.4173346 11.564221 -0.8452301
-3.924665 13.793172 -1.0629269
-5.1339402 11.852482 -1.0349344
-3.8561194 11.59868 -1.0510948
-3.877522 13.62749 -1.3008959
-4.8163891 11.119899 -1.1854199
-3.8252335 11.505779 -1.2572736
-3.8264894 11.509557 -1.4722775
-4.0537658 14.419796 -0.58013898
-5.1302094 11.946059 -0.58037001
-4.4590998 11.784489 -0.6369611
-3.9617295 14.092411 -0.82637531
-5.3819261 12.532802 -0.85047764
-4.3732152 11.557513 -0.84373146
-3.9298971 13.978242 -1.076232
-5.3657122 12.495045 -1.0895643
-3.8103216 11.582344 -1.0485245
-3.8778138 13.792988 -1.3155251
-4.7751484 11.120343 -1.1838622
-3.8300984 11.64246 -1.270888
-3.8306415 11.644111 -1.4879426
-4.059072 14.64448 -0.58857596
-5.0832639 11.957427 -0.58001322
-4.4137774 11.79514 -0.63665813
-3.9729881 14.333901 -0.83967668
-5.3539157 12.594695 -0.85334033
-4.3636928 11.661298 -0.85013467
-3.7703075 11.603812 -1.0492098
-3.8783064 13.991356 -1.3330799
-4.7273498 11.121284 -1.1821097
-3.8230557 11.766154 -1.2828522
-3.8265903 11.777033 -1.5031257
-4.7286572 12.758578 -0.44662499
-4.0605431 14.83064 -0.59554231
-5.0223966 11.918101 -0.5773375
-4.371841 11.795838 -0.63595128
-3.9748678 14.51772 -0.84970909
-4.2902846 11.575787 -0.84291399
-3.9273658 14.343242 -1.1022508
-4.9739709 11.803762 -1.0263087
-3.7283463 11.598526 -1.0476677
-3.8874552 14.197483 -1.3515493
-4.6838861 11.115903 -1.1799679
-3.8244262 11.897422 -1.2958478
-3.8223832 11.891066 -1.5161397
-4.6901169 12.798347 -0.44741234
-4.0649962 15.063454 -0.60428888
-4.9725275 11.921677 -0.57662398
-4.3175812 11.781775 -0.6343357
-3.9762571 14.734616 -0.86154503
-4.252634 11.604548 -0.84386766
-3.918942 14.521219 -1.1148167
-5.2069454 12.484309 -1.0838139
-3.7183645 11.714674 -1.0569209
-3.890399 14.415456 -1.3709329
-4.6438789 11.134832 -1.1801627
-3.824729 12.049775 -1.3109062
-4.612536 12.730879 -0.4444598
-4.0631742 15.279115 -0.61233884
-4.9066901 11.886264 -0.57403737
-3.9925308 15.013467 -0.87698811
-4.9848666 12.076241 -0.81463134
-4.2182293 11.64257 -0.84550256
-3.9420736 14.822687 -1.1368439
-4.7678866 11.550589 -1.00123
-3.8279488 12.214998 -1.1007879
-3.8912847 14.631714 -1.3901336
-4.5848098 11.10762 -1.1754894
-3.8198016 12.189 -1.3245206
-4.596818 12.813041 -0.44682184
-4.0572796 15.452241 -0.61876333
-4.8662977 11.894223 -0.57368064
-4.2366114 11.809011 -0.63423473
-4.0356112 15.369717 -0.89705288
-5.1676054 12.63131 -0.85097551
-4.3143721 12.025758 -0.87234175
-4.0069318 15.259406 -1.1693674
-4.7104392 11.513845 -0.99675733
-3.7783473 12.190801 -1.0975322
-3.8943639 14.830719 -1.4078715
-4.5551672 11.134865 -1.1768525
-3.8233037 12.335852 -1.3391665
-4.5631871 12.867482 -0.44813409
-4.8114238 11.884199 -0.57234275
-4.1779451 11.781159 -0.63191223
-3.9917521 15.432735 -0.89987099
-5.0995522 12.596507 -0.84736598
-4.3763061 12.340506 -0.89400381
-3.9839427 15.401434 -1.1791245
-4.6614742 11.514401 -0.99531972
-3.6992478 12.092144 -1.0874221
-3.9013283 15.082057 -1.4303638
-4.4978933 11.110894 -1.1725688
-3.8269491 12.509576 -1.3564939
-4.5186396 12.891666 -0.44839653
-4.7656045 11.89619 -0.57207519
-4.1426659 11.819014 -0.63312393
-3.9672027 15.573038 -0.90719801
-5.06003 12.63179 -0.84848619
-4.3297262 12.352696 -0.89373136
-3.9294367 15.423664 -1.1797158
-4.6147923 11.520306 -0.99436128
-3.6341693 12.036947 -1.0812534
-3.9025683 15.318202 -1.4513931
-4.4630609 11.142088 -1.1741265
-3.8345468 12.70063 -1.3756779
-4.5095701 12.996445 -0.45154595
-4.7156763 11.879533 -0.57055891
-4.1978397 12.098047 -0.6473617
-4.2608094 12.279524 -0.88746434
-4.5623965 11.493981 -0.99084705
-3.5906367 12.029211 -1.0795398
-3.9146435 15.569894 -1.4740683
-4.4184885 11.132003 -1.1715952
-3.8435614 12.87655 -1.393418
-4.4871907 13.08663 -0.45410484
-4.6677217 11.885578 -0.57002378
-4.1120067 11.992426 -0.64089918
-4.5093074 11.482791 -0.988451
-3.8448815 13.055372 -1.1703582
-4.3725653 11.135153 -1.1702322
-3.8339949 13.018406 -1.4072387
-4.4762487 13.189628 -0.45718864
-4.627461 11.892735 -0.56966698
-4.0197473 11.844509 -0.63231617
-3.9571772 11.660141 -0.84073418
-4.4797168 11.513622 -0.98988867
-3.8484027 13.220446 -1.1840667
-4.3382831 11.15069 -1.1704268
-3.8453422 13.209932 -1.4266289
-4.4602847 13.302602 -0.46053487
-4.5730758 11.881646 -0.56832916
-3.9864678 11.889463 -0.63393176
-4.1408677 12.349955 -0.88937169
-4.4267464 11.502055 -0.98749262
-3.8571126 13.433649 -1.2018876
-4.2938104 11.157228 -1.1694534
-3.8512506 13.413233 -1.4470507
-4.464293 13.478254 -0.46604633
-4.5209665 11.87592 -0.56725883
-4.0930653 12.357471 -0.88882673
-4.3810129 11.508887 -0.98669392
-3.8512814 13.601077 -1.2155961
-4.2500558 11.165449 -1.1686745
-3.849216 13.593783 -1.4649969
-4.4536777 13.589087 -0.46939257
-4.485045 11.893804 -0.56743723
-4.376369 11.606222 -0.77343303
-4.0747304 12.432841 -0.89332265
-4.3399115 11.509536 -0.98557574
-3.8616836 13.803086 -1.2325603
-4.2114463 11.169434 -1.1677009
-3.8579447 13.789722 -1.4847997
-4.4266176 13.675685 -0.47182024
-4.4288559 11.876465 -0.56583178
-4.3338008 11.622184 -0.77343303
-4.2893391 11.50295 -0.98365891
-3.8508041 13.961216 -1.245412
-4.1683936 11.179198 -1.1671168
-3.8518088 13.964859 -1.5021273
-4.398982 13.762267 -0.4742479
-4.3894439 11.903866 -0.56636691
-4.0126009 12.553469 -0.66624433
-4.2911744 11.63799 -0.77343303
-3.8139873 11.932103 -0.85531181
-4.2492189 11.524205 -0.98413813
-3.850318 14.161753 -1.2620335
-4.1267033 11.192533 -1.1669221
-3.8538346 14.174686 -1.5231677
-4.3882666 13.878939 -0.47779098
-4.3403745 11.885692 -0.56485069
-3.9966283 12.640288 -0.67018241
-4.2477446 11.632664 -0.77218837
-3.9701793 12.556638 -0.89918095
-4.2041044 11.513152 -0.98206156
-3.8616168 14.381622 -1.2805399
-4.0887895 11.197964 -1.1661432
-4.3617887 13.973162 -0.48048112
-4.3008528 11.912795 -0.56538582
-4.2003355 11.635012 -0.77131712
-3.9276977 12.582533 -0.89999837
-4.1591706 11.520984 -0.9814226
-3.863416 14.601799 -1.2988749
-4.0429883 11.199769 -1.1647801
-4.3470407 14.107492 -0.48454908
-4.25246 11.915306 -0.56476146
-3.9973867 12.972757 -0.68623769
-4.156321 11.646568 -0.77106822
-3.925035 12.737953 -0.91008008
-4.1142359 11.52864 -0.98078364
-3.8611391 14.812539 -1.3163532
-4.0019121 11.214512 -1.1647801
-4.3504748 14.277875 -0.48992932
-4.207684 11.907885 -0.56378037
-3.9950371 13.11136 -0.69290215
-4.1050816 11.618162 -0.76832992
-4.0726838 11.52647 -0.97950578
-3.8687103 15.034943 -1.3350309
-3.9653349 11.223276 -1.1643908
-4.3487682 14.462178 -0.49570322
-4.162035 11.917567 -0.5635128
-4.0038986 13.315285 -0.70289886
-4.0920858 11.717934 -0.77393091
-3.9479861 13.129344 -0.93610185
-4.0304098 11.54132 -0.97950578
-3.873785 15.286607 -1.3561076
-3.9359846 11.27156 -1.1678957
-4.3309855 14.596833 -0.49977121
-4.1124601 11.915744 -0.56271005
-4.0067725 13.50413 -0.71208775
-4.1813021 12.115897 -0.79919755
-3.9480824 13.306325 -0.9476822
-3.9737735 11.514555 -0.97599155
-3.8775487 15.540441 -1.3773557
-3.8978925 11.295319 -1.1688691
-4.3126731 14.704356 -0.50298625
-4.0666089 11.904025 -0.56155056
-4.0261655 13.727489 -0.7231952
-4.1264415 12.079861 -0.79596144
-3.9562395 13.489071 -0.95980752
-3.9298465 11.504343 -0.97407472
-3.881047 11.362134 -1.1745158
-4.2654161 14.743106 -0.50377357
-4.0293407 11.937781 -0.56244248
-4.0363336 13.951299 -0.73420167
-3.9461739 11.692056 -0.76945013
-3.9561279 13.674071 -0.97193283
-3.9035928 11.565892 -0.97806811
-3.8648367 11.451722 -1.1823045
-4.2579737 14.922028 -0.50935066
-3.9918797 11.971423 -0.56333441
-4.0032597 14.029385 -0.73753387
-3.9234986 11.767036 -0.77343303
-3.962925 13.888031 -0.98610175
-3.854239 11.559319 -0.97631103
-3.8555765 11.564002 -1.1924297
-4.2609797 15.11233 -0.515387
-3.9943192 12.105338 -0.56904268
-4.1529512 12.586833 -0.82645565
-3.9566374 14.032926 -0.99550229
-3.8278997 11.601661 -0.97886682
-3.8660018 11.717829 -1.2070332
-3.9845943 12.226278 -0.57403737
-4.0130682 14.435429 -0.75742626
-3.7804101 11.60045 -0.97758889
-3.8550971 11.830332 -1.2171583
-3.9964421 12.394668 -0.5813511
-4.022181 14.646357 -0.76782691
-3.9640656 14.434735 -1.022069
-3.743336 11.610371 -0.97742915
-3.8631089 11.982576 -1.2315671
-3.9988737 12.559635 -0.58839726
-4.0373621 14.915505 -0.78115582
-4.0227337 12.635338 -0.82682908
-3.9596181 14.628289 -1.0347393
-3.7019663 11.627812 -0.97774863
-3.8596206 12.123734 -1.2446131
-3.9911611 12.696195 -0.59410554
-4.0547423 15.200397 -0.79529256
-3.947664 12.558593 -0.82085466
-3.9687188 14.877913 -1.0513605
-3.6581275 11.637499 -0.97742915
-3.8485835 12.244138 -1.255517
-3.9975243 12.857489 -0.60106248
-4.0537744 15.390765 -0.80458242
-3.9330797 12.65099 -0.82608223
-4.0012412 15.191317 -1.0726138
-3.7582674 12.088696 -1.0143284
-3.8609154 12.419634 -1.2722625
-3.9931645 13.01149 -0.60757345
-4.0274377 15.521525 -0.81064099
-3.9961517 15.40095 -1.086374
-3.7268021 12.144319 -1.0178425
-3.864419 12.593547 -1.2886184
-3.9975755 13.198138 -0.61560071
-3.9189293 12.939299 -0.84300965
-3.964875 15.514088 -1.0933223
-3.867276 12.769556 -1.3051691
-4.0122643 13.398207 -0.62434149
-3.9275041 13.115998 -0.85371375
-3.931139 13.128137 -1.0980304
-3.8756716 12.943725 -1.3217198
-4.0038943 13.550782 -0.63076329
-3.9320054 13.308337 -0.86528909
-3.8999419 13.199815 -1.1028225
-3.8626065 13.074287 -1.3335974
-4.0997491 12.055346 -0.34255388
-4.0201182 13.764672 -0.64012843
-3.9511704 13.529477 -0.87885594
-3.89534 13.338304 -1.1133652
-3.8745201 13.267874 -1.3520952
-4.0183144 13.948268 -0.64797729
-3.9507332 13.714581 -0.88993341
-3.897197 13.528736 -1.1280609
-3.8754513 13.454131 -1.3696195
-3.9928296 14.053233 -0.65216929
-3.9664476 13.961306 -0.90499383
-3.8977101 13.719359 -1.1427567
-3.8870356 13.682695 -1.3914275
-4.0183744 14.342896 -0.66492367
-3.9270966 14.018036 -0.90773207
-3.8984907 13.915925 -1.1579317
-3.8782029 13.844438 -1.4064205
-4.0223284 14.532605 -0.67312932
-3.8909132 14.058758 -1.1687938
-3.8792861 14.017697 -1.4227765
-4.026361 14.757354 -0.6828512
-3.9440198 14.456551 -0.93436784
-3.8981276 14.288336 -1.1866844
-3.8896985 14.25842 -1.4457527
-4.0423613 15.001433 -0.69355422
-3.951555 14.665463 -0.94706339
-3.9087183 14.506482 -1.2037761
-3.8977039 14.46661 -1.4656136
-4.0555506 15.272984 -0.70541668
-3.9628336 14.924866 -0.9628706
-3.908731 14.721104 -1.2203888
-3.9013517 14.694345 -1.4872268
-4.0349436 15.423052 -0.71166009
-4.0020685 15.298482 -0.98602134
-3.9031858 14.920486 -1.2357235
-3.9013669 14.914597 -1.5080613
-3.9759488 15.396019 -0.99149787
-3.912123 15.148867 -1.2536141
-3.9107294 15.144562 -1.530064
-3.9519665 15.538167 -0.99971265
-3.9194736 15.410412 -1.2740604
-3.9152722 15.633534 -1.2913119
