# .PCD v0.7 - Point Cloud Data file format
VERSION 0.7
FIELDS x y z normal_x normal_y normal_z curvature
SIZE 4 4 4 4 4 4 4
TYPE F F F F F F F
COUNT 1 1 1 1 1 1 1
WIDTH 663
HEIGHT 1
VIEWPOINT 0 0 0 1 0 0 0
POINTS 663
DATA ascii
-1.0066886 -1.6224937 -0.95840824 0 0 0 1.5313322e-38
-0.94850636 -1.6497879 -0.95471239 0 0 0 1.5313322e-38
-0.90934467 -1.6222172 -0.95530373 0 0 0 1.5313322e-38
-0.79513693 -1.8621645 -1.1589932 0 0 0 1.5313322e-38
-0.73548985 -1.880188 -1.1551532 0 0 0 1.5313322e-38
-0.80211973 -1.6444044 -0.95042521 0 0 0 1.5313322e-38
-0.6870575 -1.8904495 -1.1524101 0 0 0 1.5313322e-38
-0.76202536 -1.6191444 -0.95086867 0 0 0 1.5313322e-38
-0.63028383 -1.9035673 -1.1491187 0 0 0 1.5313322e-38
-0.57795334 -1.923295 -1.1454613 0 0 0 1.5313322e-38
-0.75719595 -1.4183426 -0.734393 0 0 0 1.5313322e-38
-0.63063049 -1.6970873 -0.94155514 0 0 0 1.5313322e-38
-0.51657391 -1.9477911 -1.1410726 0 0 0 1.5313322e-38
-0.73016214 -1.3622656 -0.73664749 0 0 0 1.5313322e-38
-0.572649 -1.7124367 -0.93874627 0 0 0 1.5313322e-38
-0.47180653 -1.9362679 -1.1403412 0 0 0 1.5313322e-38
-0.51682043 -1.7398548 -0.93519825 0 0 0 1.5313322e-38
-0.42727089 -1.940299 -1.1383296 0 0 0 1.5313322e-38
-0.47859764 -1.7119493 -0.93593746 0 0 0 1.5313322e-38
-0.38010883 -1.9345903 -1.1370496 0 0 0 1.5313322e-38
-0.42823601 -1.7115726 -0.93445909 0 0 0 1.5313322e-38
-0.31938887 -1.9600868 -1.1326609 0 0 0 1.5313322e-38
-0.5056653 -1.4332666 -0.72785509 0 0 0 1.5313322e-38
-0.57942247 -1.2639828 -0.96934795 0 0 0 1.5313322e-38
-0.28148556 -1.9500751 -1.1321123 0 0 0 1.5313322e-38
-0.63735723 -1.0072651 -0.75287968 0 0 0 1.5313322e-38
-0.76780462 -0.70442009 -1.012959 0 0 0 1.5313322e-38
-0.97355461 -1.6532316 -1.1083275 0 0 0 1.5313322e-38
-0.23606682 -1.9412985 -1.1311979 0 0 0 1.5313322e-38
-0.76531839 -2.0845661 -1.2867715 0 0 0 1.5313322e-38
-0.72105742 -2.1762466 -1.4939677 0 0 0 1.5313322e-38
-0.71986151 -0.68855 -0.77125359 0 0 0 1.5313322e-38
-0.7209692 -0.68655586 -1.0128112 0 0 0 1.5313322e-38
-0.91894054 -1.6579399 -1.1059285 0 0 0 1.5313322e-38
-0.19065046 -1.932703 -1.1302836 0 0 0 1.5313322e-38
-0.69857359 -2.1187067 -1.2805831 0 0 0 1.5313322e-38
-0.73350906 -2.0456591 -1.5089097 0 0 0 1.5313322e-38
-0.73156452 -0.55037785 -0.77869332 0 0 0 1.5313322e-38
-0.67446566 -0.68634701 -1.0114807 0 0 0 1.5313322e-38
-0.85598803 -1.6963749 -1.1006166 0 0 0 1.5313322e-38
-0.14807415 -1.9341307 -1.1286378 0 0 0 1.5313322e-38
-0.64222956 -2.1469545 -1.2754261 0 0 0 1.5313322e-38
-0.61655664 -2.2010708 -1.4857736 0 0 0 1.5313322e-38
-0.48382664 -1.0125008 -0.51403642 0 0 0 1.5313322e-38
-0.60452175 -0.72404671 -1.0068978 0 0 0 1.5313322e-38
-0.091950893 -1.9516134 -1.1251634 0 0 0 1.5313322e-38
-0.58877182 -2.1547136 -1.272332 0 0 0 1.5313322e-38
-0.6207428 -2.0866795 -1.4985466 0 0 0 1.5313322e-38
-0.42316341 -1.0500479 -0.51179177 0 0 0 1.5313322e-38
-0.57121515 -0.69292164 -1.0080805 0 0 0 1.5313322e-38
-0.74095345 -1.7369642 -1.0932482 0 0 0 1.5313322e-38
-0.051831722 -1.9478769 -1.1240662 0 0 0 1.5313322e-38
-0.53620958 -2.1762381 -1.268 0 0 0 1.5313322e-38
-0.53445101 -2.1800127 -1.4838456 0 0 0 1.5313322e-38
-0.39579916 -0.98907375 -0.51357204 0 0 0 1.5313322e-38
-0.50848913 -0.71454906 -1.0048281 0 0 0 1.5313322e-38
-0.47887564 -2.1935015 -1.2638744 0 0 0 1.5313322e-38
-0.43888378 -2.2801313 -1.4679395 0 0 0 1.5313322e-38
-0.3530426 -0.96517944 -0.51380426 0 0 0 1.5313322e-38
-0.46172428 -0.697649 -1.0046803 0 0 0 1.5313322e-38
-0.60662937 -1.8066378 -1.0829669 0 0 0 1.5313322e-38
0.045428276 -1.9489326 -1.1205918 0 0 0 1.5313322e-38
-0.43166351 -2.1893253 -1.2622242 0 0 0 1.5313322e-38
-0.39778137 -2.2634335 -1.4676985 0 0 0 1.5313322e-38
-0.30694485 -0.96813107 -0.51303017 0 0 0 1.5313322e-38
-0.077298164 -1.5399151 -0.71297556 0 0 0 1.5313322e-38
-0.41628695 -0.69652176 -1.0034976 0 0 0 1.5313322e-38
-0.54758215 -1.8410587 -1.078169 0 0 0 1.5313322e-38
0.08469677 -1.9438267 -1.1196774 0 0 0 1.5313322e-38
-0.37878704 -2.2133389 -1.2576861 0 0 0 1.5313322e-38
-0.38862658 -2.191637 -1.4751695 0 0 0 1.5313322e-38
-0.23602915 -1.0151234 -0.51032108 0 0 0 1.5313322e-38
-0.071918488 -1.4281015 -0.71872449 0 0 0 1.5313322e-38
-0.36136675 -0.70035362 -1.0017236 0 0 0 1.5313322e-38
-0.49834967 -1.8385191 -1.0766268 0 0 0 1.5313322e-38
0.13282251 -1.943902 -1.1180317 0 0 0 1.5313322e-38
-0.33337641 -2.2059441 -1.2564484 0 0 0 1.5313322e-38
-0.34233284 -2.185997 -1.4734825 0 0 0 1.5313322e-38
-0.17210531 -1.0457296 -0.50830859 0 0 0 1.5313322e-38
-0.022676468 -1.4258156 -0.71782267 0 0 0 1.5313322e-38
-0.32113886 -0.6672945 -1.0029063 0 0 0 1.5313322e-38
-0.44188261 -1.8525753 -1.0735424 0 0 0 1.5313322e-38
0.17505646 -1.9293489 -1.1178489 0 0 0 1.5313322e-38
-0.28232241 -2.2114582 -1.2537668 0 0 0 1.5313322e-38
-0.27509403 -2.2277164 -1.4655294 0 0 0 1.5313322e-38
-0.11339951 -1.0828457 -0.5061413 0 0 0 1.5313322e-38
0.026844978 -1.4428892 -0.71590638 0 0 0 1.5313322e-38
0.12893343 -1.7055721 -0.91908437 0 0 0 1.5313322e-38
-0.39315939 -1.8658714 -1.0708007 0 0 0 1.5313322e-38
0.22874689 -1.9618044 -1.1132772 0 0 0 1.5313322e-38
-0.23555136 -2.2233858 -1.2506726 0 0 0 1.5313322e-38
-0.22519445 -2.2468786 -1.4609504 0 0 0 1.5313322e-38
-0.062269688 -1.0823269 -0.50544465 0 0 0 1.5313322e-38
0.073059082 -1.4335508 -0.71545547 0 0 0 1.5313322e-38
0.1835041 -1.7207928 -0.9165712 0 0 0 1.5313322e-38
-0.36411858 -1.8183174 -1.0735424 0 0 0 1.5313322e-38
0.27305031 -1.9531832 -1.1125457 0 0 0 1.5313322e-38
-0.18710995 -2.2238598 -1.2486098 0 0 0 1.5313322e-38
-0.14667416 -2.3165016 -1.4493823 0 0 0 1.5313322e-38
-0.011161804 -1.1012545 -0.50405139 0 0 0 1.5313322e-38
0.15153551 -1.5274944 -0.70891756 0 0 0 1.5313322e-38
0.21408653 -1.6919737 -0.91775388 0 0 0 1.5313322e-38
-0.31627846 -1.8301172 -1.0709721 0 0 0 1.5313322e-38
0.31214428 -1.9488554 -1.1116314 0 0 0 1.5313322e-38
-0.13819456 -2.2416439 -1.2448968 0 0 0 1.5313322e-38
-0.13119555 -2.2578182 -1.4551663 0 0 0 1.5313322e-38
0.05319643 -1.1366777 -0.5018841 0 0 0 1.5313322e-38
0.20514584 -1.5391817 -0.70722669 0 0 0 1.5313322e-38
0.26708174 -1.7038565 -0.91553634 0 0 0 1.5313322e-38
-0.27199936 -1.8175602 -1.0704579 0 0 0 1.5313322e-38
0.36418152 -1.9610558 -1.1088885 0 0 0 1.5313322e-38
-0.09072876 -2.2406998 -1.2430402 0 0 0 1.5313322e-38
-0.033765793 -2.3736687 -1.4375733 0 0 0 1.5313322e-38
0.089272976 -1.097517 -0.50281292 0 0 0 1.5313322e-38
0.24953079 -1.5267849 -0.70700121 0 0 0 1.5313322e-38
0.2257514 -1.4637184 -0.93327641 0 0 0 1.5313322e-38
-0.22147083 -1.81985 -1.068573 0 0 0 1.5313322e-38
0.40283585 -1.9380341 -1.10962 0 0 0 1.5313322e-38
-0.042542934 -2.241787 -1.2409774 0 0 0 1.5313322e-38
0.010041237 -2.3657885 -1.4363683 0 0 0 1.5313322e-38
0.1477232 -1.118454 -0.50126487 0 0 0 1.5313322e-38
0.29256392 -1.5108089 -0.70700121 0 0 0 1.5313322e-38
0.27454233 -1.4626245 -0.93209374 0 0 0 1.5313322e-38
-0.18027973 -1.8003092 -1.0687444 0 0 0 1.5313322e-38
0.44712019 -1.9300909 -1.1088885 0 0 0 1.5313322e-38
0.0055708885 -2.2430792 -1.2389146 0 0 0 1.5313322e-38
0.012348175 -2.2592249 -1.4481773 0 0 0 1.5313322e-38
0.19618177 -1.1325874 -0.50010383 0 0 0 1.5313322e-38
0.34800816 -1.5478773 -0.70395768 0 0 0 1.5313322e-38
-0.12205696 -1.8386068 -1.0637751 0 0 0 1.5313322e-38
0.48752117 -1.9300995 -1.1076084 0 0 0 1.5313322e-38
0.040967941 -2.230442 -1.2387084 0 0 0 1.5313322e-38
0.054557323 -2.2631035 -1.4457673 0 0 0 1.5313322e-38
0.2440567 -1.1258163 -0.49971679 0 0 0 1.5313322e-38
0.38892746 -1.5266285 -0.70429587 0 0 0 1.5313322e-38
-0.77635527 -1.6111383 -0.87683767 0 0 0 1.5313322e-38
0.36511421 -1.4613895 -0.92987627 0 0 0 1.5313322e-38
-0.066507339 -1.8544331 -1.0606908 0 0 0 1.5313322e-38
0.52636671 -1.9075012 -1.1083399 0 0 0 1.5313322e-38
0.089755535 -2.2339315 -1.2364393 0 0 0 1.5313322e-38
0.10925579 -2.2812901 -1.4411883 0 0 0 1.5313322e-38
0.28085184 -1.1083355 -0.49987161 0 0 0 1.5313322e-38
0.42782784 -1.5190039 -0.70395768 0 0 0 1.5313322e-38
-0.75224781 -1.5670242 -0.87888122 0 0 0 1.5313322e-38
0.30743265 -1.1832695 -0.95072085 0 0 0 1.5313322e-38
-0.022371292 -1.8600302 -1.0588058 0 0 0 1.5313322e-38
0.57144737 -1.9209185 -1.1057798 0 0 0 1.5313322e-38
0.12366533 -2.2178812 -1.2366456 0 0 0 1.5313322e-38
0.14526892 -2.2708197 -1.4407064 0 0 0 1.5313322e-38
0.32208586 -1.0830564 -0.50025862 0 0 0 1.5313322e-38
-0.77047157 -1.4133043 -0.65816617 0 0 0 1.5313322e-38
0.47155428 -1.5055637 -0.70384496 0 0 0 1.5313322e-38
-0.67128325 -1.6308937 -0.8726142 0 0 0 1.5313322e-38
0.34174633 -1.1393032 -0.95293838 0 0 0 1.5313322e-38
0.026157856 -1.8596849 -1.0572636 0 0 0 1.5313322e-38
0.60838413 -1.8929768 -1.1070598 0 0 0 1.5313322e-38
0.17012548 -2.216197 -1.2349954 0 0 0 1.5313322e-38
0.20639181 -2.3060036 -1.4339583 0 0 0 1.5313322e-38
0.37202215 -1.0824413 -0.49963939 0 0 0 1.5313322e-38
-0.72865915 -1.3899498 -0.65836811 0 0 0 1.5313322e-38
0.51861811 -1.5017118 -0.70316863 0 0 0 1.5313322e-38
-0.59250164 -1.6915617 -0.86661971 0 0 0 1.5313322e-38
0.33945751 -0.9899931 -0.96343458 0 0 0 1.5313322e-38
0.076844692 -1.8650932 -1.0552074 0 0 0 1.5313322e-38
0.65335965 -1.8877134 -1.1061455 0 0 0 1.5313322e-38
0.21579933 -2.2128563 -1.2335514 0 0 0 1.5313322e-38
0.24214935 -2.2788029 -1.4354043 0 0 0 1.5313322e-38
0.41291428 -1.0766802 -0.49932978 0 0 0 1.5313322e-38
-0.68236494 -1.3932285 -0.65725738 0 0 0 1.5313322e-38
0.41515446 -1.0831528 -0.72740418 0 0 0 1.5313322e-38
-0.54390383 -1.7025309 -0.8645761 0 0 0 1.5313322e-38
0.3754158 -0.9690361 -0.96402591 0 0 0 1.5313322e-38
0.10973072 -1.8434343 -1.0558927 0 0 0 1.5313322e-38
0.69040895 -1.8790417 -1.1057798 0 0 0 1.5313322e-38
0.24979401 -2.1971941 -1.2337576 0 0 0 1.5313322e-38
0.25766611 -2.2170763 -1.4416703 0 0 0 1.5313322e-38
0.44466114 -1.0234871 -0.50087786 0 0 0 1.5313322e-38
-0.62426615 -1.4067078 -0.65543979 0 0 0 1.5313322e-38
0.4436574 -1.0205526 -0.73022223 0 0 0 1.5313322e-38
-0.48857212 -1.7128325 -0.86239624 0 0 0 1.5313322e-38
0.15523815 -1.8362217 -1.0550359 0 0 0 1.5313322e-38
0.7302146 -1.859026 -1.1063284 0 0 0 1.5313322e-38
0.29690027 -2.1978855 -1.2319012 0 0 0 1.5313322e-38
0.30468607 -2.2177639 -1.4395013 0 0 0 1.5313322e-38
0.48377943 -0.99118996 -0.50157446 0 0 0 1.5313322e-38
-0.56312656 -1.4277697 -0.65321833 0 0 0 1.5313322e-38
0.64452958 -1.4668722 -0.70271772 0 0 0 1.5313322e-38
-0.4542346 -1.6758785 -0.86375862 0 0 0 1.5313322e-38
0.71403384 -1.6732111 -0.90651846 0 0 0 1.5313322e-38
0.1992979 -1.8254719 -1.0545219 0 0 0 1.5313322e-38
0.75927377 -1.8070736 -1.1099857 0 0 0 1.5313322e-38
0.33316088 -2.1709499 -1.2331388 0 0 0 1.5313322e-38
0.38320541 -2.3001051 -1.4267282 0 0 0 1.5313322e-38
0.52741385 -0.99338818 -0.50095528 0 0 0 1.5313322e-38
-0.52274132 -1.4188404 -0.65281445 0 0 0 1.5313322e-38
0.66639805 -1.4089603 -0.70542312 0 0 0 1.5313322e-38
-0.60650682 -1.2263403 -0.89604741 0 0 0 1.5313322e-38
0.59419107 -1.1937571 -0.94303346 0 0 0 1.5313322e-38
-1.0411539 -1.6480904 -1.0354136 0 0 0 1.5313322e-38
0.23452759 -1.8097496 -1.0546932 0 0 0 1.5313322e-38
0.76179171 -1.6948652 -1.1196774 0 0 0 1.5313322e-38
0.37372208 -2.1723642 -1.2314886 0 0 0 1.5313322e-38
0.41196537 -2.2719898 -1.4286562 0 0 0 1.5313322e-38
0.55421972 -0.92340279 -0.50319993 0 0 0 1.5313322e-38
-0.47614622 -1.4073725 -0.65241051 0 0 0 1.5313322e-38
-0.79446316 -0.66846085 -0.93610185 0 0 0 1.5313322e-38
0.76170659 -1.5521336 -0.91391015 0 0 0 1.5313322e-38
-0.98379517 -1.6578922 -1.0326982 0 0 0 1.5313322e-38
0.28784037 -1.8235235 -1.0519515 0 0 0 1.5313322e-38
0.76734281 -1.5691919 -1.1304665 0 0 0 1.5313322e-38
-0.80318022 -2.0306787 -1.2202737 0 0 0 1.5313322e-38
0.42427397 -2.1828756 -1.2286006 0 0 0 1.5313322e-38
0.44944715 -2.2491798 -1.4296203 0 0 0 1.5313322e-38
0.58458328 -0.86295033 -0.50505763 0 0 0 1.5313322e-38
-0.4099474 -1.4420204 -0.64948219 0 0 0 1.5313322e-38
-0.77958584 -0.57524776 -0.94155145 0 0 0 1.5313322e-38
0.84300661 -1.6555939 -0.90474445 0 0 0 1.5313322e-38
-0.91021204 -1.7021132 -1.0269476 0 0 0 1.5313322e-38
0.32628345 -1.798358 -1.0528084 0 0 0 1.5313322e-38
0.77376342 -1.4434061 -1.1412555 0 0 0 1.5313322e-38
-0.74391937 -2.0485353 -1.2161847 0 0 0 1.5313322e-38
0.4614048 -2.1582241 -1.229632 0 0 0 1.5313322e-38
0.42771769 -2.0685053 -1.4510694 0 0 0 1.5313322e-38
0.57504463 -0.70005703 -0.51117253 0 0 0 1.5313322e-38
-0.47079468 -1.1944313 -0.66220528 0 0 0 1.5313322e-38
0.87641716 -1.6342649 -0.9054836 0 0 0 1.5313322e-38
-0.8704505 -1.691968 -1.0263087 0 0 0 1.5313322e-38
0.37273073 -1.8129101 -1.050238 0 0 0 1.5313322e-38
0.76501203 -1.2892036 -1.1549703 0 0 0 1.5313322e-38
-0.68303061 -2.085638 -1.2103434 0 0 0 1.5313322e-38
0.50462341 -2.1675587 -1.2271568 0 0 0 1.5313322e-38
0.49680853 -2.1465445 -1.4392604 0 0 0 1.5313322e-38
0.59196901 -0.59388351 -0.51488787 0 0 0 1.5313322e-38
0.62083817 -0.68444061 -0.74510175 0 0 0 1.5313322e-38
-0.63689423 -0.67309284 -0.93160594 0 0 0 1.5313322e-38
0.91965818 -1.6224861 -0.90533578 0 0 0 1.5313322e-38
0.42159224 -1.8160858 -1.0485245 0 0 0 1.5313322e-38
0.77745485 -1.1764469 -1.1644793 0 0 0 1.5313322e-38
-0.63101387 -2.0896511 -1.2078121 0 0 0 1.5313322e-38
0.54393339 -2.1487789 -1.2275692 0 0 0 1.5313322e-38
0.55744028 -2.1855097 -1.4322712 0 0 0 1.5313322e-38
0.58189487 -0.42306423 -0.52131236 0 0 0 1.5313322e-38
0.66396785 -0.68333435 -0.74442542 0 0 0 1.5313322e-38
-0.57974434 -0.69900131 -0.92847246 0 0 0 1.5313322e-38
0.95503664 -1.6070833 -0.90563148 0 0 0 1.5313322e-38
-0.76711369 -1.7071781 -1.0216763 0 0 0 1.5313322e-38
0.46029186 -1.8104115 -1.047839 0 0 0 1.5313322e-38
0.7657187 -1.006753 -1.179657 0 0 0 1.5313322e-38
-0.58494377 -2.0966234 -1.2052808 0 0 0 1.5313322e-38
0.58226347 -2.1453438 -1.2265378 0 0 0 1.5313322e-38
0.59428978 -2.1783676 -1.4315482 0 0 0 1.5313322e-38
0.58738899 -0.27474213 -0.5267306 0 0 0 1.5313322e-38
-0.20081949 -1.4909229 -0.64312065 0 0 0 1.5313322e-38
0.68159986 -0.57736778 -0.74983615 0 0 0 1.5313322e-38
-0.83123159 -1.4573107 -0.81089735 0 0 0 1.5313322e-38
-0.52836752 -0.69291306 -0.92751873 0 0 0 1.5313322e-38
0.71970534 -0.7005434 -0.97496563 0 0 0 1.5313322e-38
0.50430918 -1.8008308 -1.047325 0 0 0 1.5313322e-38
0.77276492 -0.87097073 -1.1913602 0 0 0 1.5313322e-38
-0.5347991 -2.0974569 -1.2031388 0 0 0 1.5313322e-38
0.62639666 -2.1399422 -1.2255064 0 0 0 1.5313322e-38
0.62417173 -2.1337624 -1.4354043 0 0 0 1.5313322e-38
0.58980656 -0.11291695 -0.5326907 0 0 0 1.5313322e-38
-0.17945051 -1.4196291 -0.64604896 0 0 0 1.5313322e-38
-0.73471498 -1.5535126 -0.80293155 0 0 0 1.5313322e-38
-0.47251129 -0.69812393 -0.92574763 0 0 0 1.5313322e-38
0.72767997 -0.56237221 -0.98457485 0 0 0 1.5313322e-38
0.54165936 -1.772646 -1.0485245 0 0 0 1.5313322e-38
0.76788378 -0.69319439 -1.2070866 0 0 0 1.5313322e-38
-0.48141432 -2.1057472 -1.2002182 0 0 0 1.5313322e-38
0.65850925 -2.1009798 -1.2281882 0 0 0 1.5313322e-38
0.63568783 -2.0368538 -1.4460083 0 0 0 1.5313322e-38
0.58464622 0.05268383 -0.53888297 0 0 0 1.5313322e-38
-0.11910772 -1.4620209 -0.64291871 0 0 0 1.5313322e-38
0.67454958 -0.243186 -0.76798457 0 0 0 1.5313322e-38
-0.72103691 -1.4858332 -0.80641657 0 0 0 1.5313322e-38
-0.43153191 -0.68585873 -0.92547518 0 0 0 1.5313322e-38
0.72815537 -0.4204073 -0.99462754 0 0 0 1.5313322e-38
-0.58480263 -1.7856035 -1.0098557 0 0 0 1.5313322e-38
0.58836317 -1.7899294 -1.0457828 0 0 0 1.5313322e-38
0.99152613 -1.2870989 -1.1489358 0 0 0 1.5313322e-38
-0.4307003 -2.1241741 -1.1965187 0 0 0 1.5313322e-38
0.69622993 -2.0960636 -1.227363 0 0 0 1.5313322e-38
0.58410025 0.23204994 -0.54553968 0 0 0 1.5313322e-38
-0.74703121 -1.3131304 -0.58482957 0 0 0 1.5313322e-38
-0.098006725 -1.3890238 -0.64594799 0 0 0 1.5313322e-38
0.68156338 -0.09297657 -0.77598798 0 0 0 1.5313322e-38
-0.67538929 -1.4717617 -0.80604321 0 0 0 1.5313322e-38
-0.38541222 -0.66739273 -0.92547518 0 0 0 1.5313322e-38
-0.57216644 -1.7011213 -1.0156063 0 0 0 1.5313322e-38
0.62846375 -1.7695484 -1.0462968 0 0 0 1.5313322e-38
1.0411537 -1.2929211 -1.1471071 0 0 0 1.5313322e-38
-0.38250017 -2.1220379 -1.1947662 0 0 0 1.5313322e-38
0.72866869 -2.0572987 -1.2300446 0 0 0 1.5313322e-38
0.74090171 -2.0924263 -1.4354043 0 0 0 1.5313322e-38
0.58651638 0.40584755 -0.55196416 0 0 0 1.5313322e-38
-0.69100857 -1.320878 -0.58349174 0 0 0 1.5313322e-38
-0.052268982 -1.3773508 -0.64564508 0 0 0 1.5313322e-38
0.6680975 0.13011551 -0.78827482 0 0 0 1.5313322e-38
0.082847595 -1.7202587 -0.84686494 0 0 0 1.5313322e-38
0.66845012 0.12806511 -1.0348384 0 0 0 1.5313322e-38
-0.57439995 -1.5819788 -1.0243918 0 0 0 1.5313322e-38
0.68422151 -1.794528 -1.0426984 0 0 0 1.5313322e-38
1.0098825 -1.0258484 -1.1714281 0 0 0 1.5313322e-38
-0.32625055 -2.1382866 -1.1910666 0 0 0 1.5313322e-38
0.75745511 -2.0073347 -1.233964 0 0 0 1.5313322e-38
0.77733612 -2.0651064 -1.4370914 0 0 0 1.5313322e-38
0.57449245 0.60646152 -0.55954969 0 0 0 1.5313322e-38
-0.65347481 -1.3042212 -0.58349174 0 0 0 1.5313322e-38
-0.0098309517 -1.3757248 -0.64493823 0 0 0 1.5313322e-38
0.65749526 0.32265091 -0.7988708 0 0 0 1.5313322e-38
0.124928 -1.7209005 -0.84577501 0 0 0 1.5313322e-38
0.71444845 0.12704277 -1.0338036 0 0 0 1.5313322e-38
-0.53204632 -1.5784521 -1.0232736 0 0 0 1.5313322e-38
0.72604275 -1.7991657 -1.0411562 0 0 0 1.5313322e-38
0.75761175 -0.020535469 -1.2665174 0 0 0 1.5313322e-38
-0.28726387 -2.131875 -1.190093 0 0 0 1.5313322e-38
0.7832036 -1.966979 -1.2370582 0 0 0 1.5313322e-38
0.79459977 -2.0004358 -1.4438393 0 0 0 1.5313322e-38
0.58324242 0.76716614 -0.56543237 0 0 0 1.5313322e-38
-0.59440279 -1.3197165 -0.58179706 0 0 0 1.5313322e-38
0.65859771 0.50595379 -0.80879045 0 0 0 1.5313322e-38
-0.50124931 -1.5320644 -0.7982018 0 0 0 1.5313322e-38
0.17515802 -1.7249422 -0.84427643 0 0 0 1.5313322e-38
0.70769954 0.33485794 -1.0487348 0 0 0 1.5313322e-38
-0.3973012 -1.7696533 -1.0049039 0 0 0 1.5313322e-38
0.75726962 -1.7528286 -1.0440692 0 0 0 1.5313322e-38
0.7526114 0.17918491 -1.2842553 0 0 0 1.5313322e-38
-0.23208427 -2.1467524 -1.1865882 0 0 0 1.5313322e-38
0.79289412 -1.8586845 -1.2473722 0 0 0 1.5313322e-38
0.80169678 -1.884841 -1.4568534 0 0 0 1.5313322e-38
0.58436584 0.95874691 -0.57255346 0 0 0 1.5313322e-38
-0.54107475 -1.322649 -0.5807268 0 0 0 1.5313322e-38
0.6500628 0.72784138 -0.82096457 0 0 0 1.5313322e-38
-0.59072733 -1.2074471 -0.81898767 0 0 0 1.5313322e-38
0.2124815 -1.6956444 -0.8452301 0 0 0 1.5313322e-38
0.70515108 0.53330612 -1.0629269 0 0 0 1.5313322e-38
-0.50412416 -1.4073839 -1.0349344 0 0 0 1.5313322e-38
0.77369666 -1.6611862 -1.0510948 0 0 0 1.5313322e-38
0.75229406 0.36762428 -1.3008959 0 0 0 1.5313322e-38
-0.18657303 -2.139967 -1.1854199 0 0 0 1.5313322e-38
0.8045826 -1.7540865 -1.2572736 0 0 0 1.5313322e-38
0.80332661 -1.750309 -1.4722775 0 0 0 1.5313322e-38
0.57605028 1.1599302 -0.58013898 0 0 0 1.5313322e-38
-0.50039339 -1.3138065 -0.58037001 0 0 0 1.5313322e-38
0.17071629 -1.4753771 -0.6369611 0 0 0 1.5313322e-38
0.66808653 0.83254528 -0.82637531 0 0 0 1.5313322e-38
-0.75211 -0.72706413 -0.85047764 0 0 0 1.5313322e-38
0.25660086 -1.7023525 -0.84373146 0 0 0 1.5313322e-38
0.69991899 0.71837616 -1.076232 0 0 0 1.5313322e-38
-0.73589611 -0.76482105 -1.0895643 0 0 0 1.5313322e-38
0.81949449 -1.6775217 -1.0485245 0 0 0 1.5313322e-38
0.75200224 0.53312206 -1.3155251 0 0 0 1.5313322e-38
-0.14533234 -2.1395226 -1.1838622 0 0 0 1.5313322e-38
0.79971766 -1.6174059 -1.270888 0 0 0 1.5313322e-38
0.79917455 -1.6157551 -1.4879426 0 0 0 1.5313322e-38
0.57074404 1.384614 -0.58857596 0 0 0 1.5313322e-38
-0.45344782 -1.3024387 -0.58001322 0 0 0 1.5313322e-38
0.2160387 -1.4647255 -0.63665813 0 0 0 1.5313322e-38
0.65682793 1.0740356 -0.83967668 0 0 0 1.5313322e-38
-0.72409964 -0.66517067 -0.85334033 0 0 0 1.5313322e-38
0.26612329 -1.598568 -0.85013467 0 0 0 1.5313322e-38
0.85950851 -1.6560535 -1.0492098 0 0 0 1.5313322e-38
0.75150967 0.73149014 -1.3330799 0 0 0 1.5313322e-38
-0.097533703 -2.1385822 -1.1821097 0 0 0 1.5313322e-38
0.80676031 -1.4937115 -1.2828522 0 0 0 1.5313322e-38
0.80322576 -1.4828329 -1.5031257 0 0 0 1.5313322e-38
-0.09884119 -0.50128746 -0.44662499 0 0 0 1.5313322e-38
0.56927299 1.5707741 -0.59554231 0 0 0 1.5313322e-38
-0.39258051 -1.3417645 -0.5773375 0 0 0 1.5313322e-38
0.2579751 -1.4640274 -0.63595128 0 0 0 1.5313322e-38
0.65494823 1.2578545 -0.84970909 0 0 0 1.5313322e-38
0.33953142 -1.6840792 -0.84291399 0 0 0 1.5313322e-38
0.70245028 1.0833759 -1.1022508 0 0 0 1.5313322e-38
-0.34415483 -1.4561033 -1.0263087 0 0 0 1.5313322e-38
0.90146971 -1.6613398 -1.0476677 0 0 0 1.5313322e-38
0.74236083 0.9376173 -1.3515493 0 0 0 1.5313322e-38
-0.054069996 -2.1439629 -1.1799679 0 0 0 1.5313322e-38
0.80538988 -1.3624439 -1.2958478 0 0 0 1.5313322e-38
0.80743289 -1.3688002 -1.5161397 0 0 0 1.5313322e-38
-0.060300827 -0.46151829 -0.44741234 0 0 0 1.5313322e-38
0.56481981 1.8035879 -0.60428888 0 0 0 1.5313322e-38
-0.34271145 -1.3381891 -0.57662398 0 0 0 1.5313322e-38
0.31223488 -1.4780903 -0.6343357 0 0 0 1.5313322e-38
0.65355897 1.4747505 -0.86154503 0 0 0 1.5313322e-38
0.37718201 -1.6553173 -0.84386766 0 0 0 1.5313322e-38
0.71087408 1.2613535 -1.1148167 0 0 0 1.5313322e-38
-0.57712936 -0.77555656 -1.0838139 0 0 0 1.5313322e-38
0.91145158 -1.5451918 -1.0569209 0 0 0 1.5313322e-38
0.73941708 1.1555901 -1.3709329 0 0 0 1.5313322e-38
-0.014062881 -2.1250334 -1.1801627 0 0 0 1.5313322e-38
0.80508709 -1.2100906 -1.3109062 0 0 0 1.5313322e-38
0.017280102 -0.52898693 -0.4444598 0 0 0 1.5313322e-38
0.56664181 2.019249 -0.61233884 0 0 0 1.5313322e-38
-0.27687407 -1.3736019 -0.57403737 0 0 0 1.5313322e-38
0.63728523 1.7536011 -0.87698811 0 0 0 1.5313322e-38
-0.35505056 -1.1836252 -0.81463134 0 0 0 1.5313322e-38
0.41158676 -1.6172962 -0.84550256 0 0 0 1.5313322e-38
0.68774247 1.5628214 -1.1368439 0 0 0 1.5313322e-38
-0.13807058 -1.7092772 -1.00123 0 0 0 1.5313322e-38
0.80186725 -1.0448675 -1.1007879 0 0 0 1.5313322e-38
0.73853135 1.3718481 -1.3901336 0 0 0 1.5313322e-38
0.045006275 -2.1522455 -1.1754894 0 0 0 1.5313322e-38
0.81001449 -1.0708656 -1.3245206 0 0 0 1.5313322e-38
0.032998085 -0.44682503 -0.44682184 0 0 0 1.5313322e-38
0.57253647 2.1923752 -0.61876333 0 0 0 1.5313322e-38
-0.23648167 -1.3656425 -0.57368064 0 0 0 1.5313322e-38
0.39320469 -1.4508543 -0.63423473 0 0 0 1.5313322e-38
0.5942049 2.1098509 -0.89705288 0 0 0 1.5313322e-38
-0.53778934 -0.6285553 -0.85097551 0 0 0 1.5313322e-38
0.31544399 -1.234108 -0.87234175 0 0 0 1.5313322e-38
0.62288427 1.9995403 -1.1693674 0 0 0 1.5313322e-38
-0.08062315 -1.7460203 -0.99675733 0 0 0 1.5313322e-38
0.8514688 -1.0690651 -1.0975322 0 0 0 1.5313322e-38
0.73545218 1.5708532 -1.4078715 0 0 0 1.5313322e-38
0.074648857 -2.125001 -1.1768525 0 0 0 1.5313322e-38
0.80651236 -0.92401409 -1.3391665 0 0 0 1.5313322e-38
0.066628933 -0.39238358 -0.44813409 0 0 0 1.5313322e-38
-0.18160772 -1.3756666 -0.57234275 0 0 0 1.5313322e-38
0.45187092 -1.4787064 -0.63191223 0 0 0 1.5313322e-38
0.63806391 2.1728697 -0.89987099 0 0 0 1.5313322e-38
-0.4697361 -0.66335869 -0.84736598 0 0 0 1.5313322e-38
0.25351 -0.91936016 -0.89400381 0 0 0 1.5313322e-38
0.64587331 2.1415682 -1.1791245 0 0 0 1.5313322e-38
-0.031658173 -1.7454643 -0.99531972 0 0 0 1.5313322e-38
0.93056822 -1.1677217 -1.0874221 0 0 0 1.5313322e-38
0.72848773 1.8221912 -1.4303638 0 0 0 1.5313322e-38
0.13192272 -2.1489716 -1.1725688 0 0 0 1.5313322e-38
0.80286694 -0.75028992 -1.3564939 0 0 0 1.5313322e-38
0.11117649 -0.36819935 -0.44839653 0 0 0 1.5313322e-38
-0.13578844 -1.3636761 -0.57207519 0 0 0 1.5313322e-38
0.48715019 -1.4408522 -0.63312393 0 0 0 1.5313322e-38
0.66261339 2.3131723 -0.90719801 0 0 0 1.5313322e-38
-0.43021393 -0.6280756 -0.84848619 0 0 0 1.5313322e-38
0.30008984 -0.90716934 -0.89373136 0 0 0 1.5313322e-38
0.70037937 2.1637983 -1.1797158 0 0 0 1.5313322e-38
0.015023708 -1.7395601 -0.99436128 0 0 0 1.5313322e-38
0.99564672 -1.2229185 -1.0812534 0 0 0 1.5313322e-38
0.72724771 2.0583363 -1.4513931 0 0 0 1.5313322e-38
0.1667552 -2.1177778 -1.1741265 0 0 0 1.5313322e-38
0.79526925 -0.55923557 -1.3756779 0 0 0 1.5313322e-38
0.12024593 -0.26342106 -0.45154595 0 0 0 1.5313322e-38
-0.085860252 -1.3803329 -0.57055891 0 0 0 1.5313322e-38
0.43197632 -1.1618185 -0.6473617 0 0 0 1.5313322e-38
0.36900663 -0.98034191 -0.88746434 0 0 0 1.5313322e-38
0.067419529 -1.7658844 -0.99084705 0 0 0 1.5313322e-38
1.0391793 -1.2306547 -1.0795398 0 0 0 1.5313322e-38
0.71517253 2.3100281 -1.4740683 0 0 0 1.5313322e-38
0.21132755 -2.1278629 -1.1715952 0 0 0 1.5313322e-38
0.78625464 -0.38331604 -1.393418 0 0 0 1.5313322e-38
0.14262533 -0.17323589 -0.45410484 0 0 0 1.5313322e-38
-0.037905693 -1.3742876 -0.57002378 0 0 0 1.5313322e-38
0.51780939 -1.2674398 -0.64089918 0 0 0 1.5313322e-38
0.12050867 -1.7770748 -0.988451 0 0 0 1.5313322e-38
0.78493452 -0.20449352 -1.1703582 0 0 0 1.5313322e-38
0.25725079 -2.1247129 -1.1702322 0 0 0 1.5313322e-38
0.79582119 -0.24145985 -1.4072387 0 0 0 1.5313322e-38
0.15356731 -0.070238113 -0.45718864 0 0 0 1.5313322e-38
0.0023550987 -1.3671312 -0.56966698 0 0 0 1.5313322e-38
0.6100688 -1.4153566 -0.63231617 0 0 0 1.5313322e-38
0.67263889 -1.5997248 -0.84073418 0 0 0 1.5313322e-38
0.15009928 -1.7462435 -0.98988867 0 0 0 1.5313322e-38
0.78141332 -0.039420128 -1.1840667 0 0 0 1.5313322e-38
0.29153299 -2.1091757 -1.1704268 0 0 0 1.5313322e-38
0.7844739 -0.049933434 -1.4266289 0 0 0 1.5313322e-38
0.16953135 0.042736053 -0.46053487 0 0 0 1.5313322e-38
0.056740284 -1.3782196 -0.56832916 0 0 0 1.5313322e-38
0.64334822 -1.3704023 -0.63393176 0 0 0 1.5313322e-38
0.48894835 -0.90991116 -0.88937169 0 0 0 1.5313322e-38
0.20306969 -1.7578106 -0.98749262 0 0 0 1.5313322e-38
0.77270341 0.1737833 -1.2018876 0 0 0 1.5313322e-38
0.33600569 -2.1026373 -1.1694534 0 0 0 1.5313322e-38
0.77856541 0.15336704 -1.4470507 0 0 0 1.5313322e-38
0.16552305 0.21838856 -0.46604633 0 0 0 1.5313322e-38
0.10884953 -1.3839455 -0.56725883 0 0 0 1.5313322e-38
0.53675079 -0.90239429 -0.88882673 0 0 0 1.5313322e-38
0.24880314 -1.7509785 -0.98669392 0 0 0 1.5313322e-38
0.77853465 0.34121132 -1.2155961 0 0 0 1.5313322e-38
0.37976027 -2.0944166 -1.1686745 0 0 0 1.5313322e-38
0.78060007 0.33391762 -1.4649969 0 0 0 1.5313322e-38
0.1761384 0.32922077 -0.46939257 0 0 0 1.5313322e-38
0.1447711 -1.3660622 -0.56743723 0 0 0 1.5313322e-38
0.25344706 -1.6536436 -0.77343303 0 0 0 1.5313322e-38
0.55508566 -0.82702446 -0.89332265 0 0 0 1.5313322e-38
0.28990459 -1.75033 -0.98557574 0 0 0 1.5313322e-38
0.76813245 0.54322052 -1.2325603 0 0 0 1.5313322e-38
0.41836977 -2.0904322 -1.1677009 0 0 0 1.5313322e-38
0.77187133 0.52985668 -1.4847997 0 0 0 1.5313322e-38
0.20319843 0.41581917 -0.47182024 0 0 0 1.5313322e-38
0.20096016 -1.3834009 -0.56583178 0 0 0 1.5313322e-38
0.29601526 -1.637682 -0.77343303 0 0 0 1.5313322e-38
0.34047699 -1.756916 -0.98365891 0 0 0 1.5313322e-38
0.77901196 0.70135021 -1.245412 0 0 0 1.5313322e-38
0.46142244 -2.0806675 -1.1671168 0 0 0 1.5313322e-38
0.77800727 0.70499325 -1.5021273 0 0 0 1.5313322e-38
0.23083401 0.50240135 -0.4742479 0 0 0 1.5313322e-38
0.24037218 -1.3559999 -0.56636691 0 0 0 1.5313322e-38
0.61721516 -0.70639706 -0.66624433 0 0 0 1.5313322e-38
0.33864164 -1.6218758 -0.77343303 0 0 0 1.5313322e-38
0.8158288 -1.3277626 -0.85531181 0 0 0 1.5313322e-38
0.38059711 -1.7356606 -0.98413813 0 0 0 1.5313322e-38
0.7794981 0.90188694 -1.2620335 0 0 0 1.5313322e-38
0.50311279 -2.0673332 -1.1669221 0 0 0 1.5313322e-38
0.77598143 0.91482067 -1.5231677 0 0 0 1.5313322e-38
0.24154949 0.61907291 -0.47779098 0 0 0 1.5313322e-38
0.28944159 -1.3741741 -0.56485069 0 0 0 1.5313322e-38
0.63318777 -0.61957741 -0.67018241 0 0 0 1.5313322e-38
0.3820715 -1.627202 -0.77218837 0 0 0 1.5313322e-38
0.65963674 -0.703228 -0.89918095 0 0 0 1.5313322e-38
0.42571163 -1.7467136 -0.98206156 0 0 0 1.5313322e-38
0.76819921 1.1217566 -1.2805399 0 0 0 1.5313322e-38
0.54102659 -2.061902 -1.1661432 0 0 0 1.5313322e-38
0.26802731 0.71329594 -0.48048112 0 0 0 1.5313322e-38
0.32896328 -1.3470707 -0.56538582 0 0 0 1.5313322e-38
0.42948055 -1.6248541 -0.77131712 0 0 0 1.5313322e-38
0.7021184 -0.67733288 -0.89999837 0 0 0 1.5313322e-38
0.47064543 -1.7388821 -0.9814226 0 0 0 1.5313322e-38
0.7664001 1.3419333 -1.2988749 0 0 0 1.5313322e-38
0.58682775 -2.0600967 -1.1647801 0 0 0 1.5313322e-38
0.2827754 0.84762669 -0.48454908 0 0 0 1.5313322e-38
0.37735605 -1.3445597 -0.56476146 0 0 0 1.5313322e-38
0.63242936 -0.28710842 -0.68623769 0 0 0 1.5313322e-38
0.47349501 -1.6132975 -0.77106822 0 0 0 1.5313322e-38
0.70478106 -0.52191257 -0.91008008 0 0 0 1.5313322e-38
0.51558018 -1.731226 -0.98078364 0 0 0 1.5313322e-38
0.768677 1.5526733 -1.3163532 0 0 0 1.5313322e-38
0.62790394 -2.0453539 -1.1647801 0 0 0 1.5313322e-38
0.27934122 1.0180092 -0.48992932 0 0 0 1.5313322e-38
0.42213202 -1.3519812 -0.56378037 0 0 0 1.5313322e-38
0.63477898 -0.14850616 -0.69290215 0 0 0 1.5313322e-38
0.5247345 -1.6417036 -0.76832992 0 0 0 1.5313322e-38
0.55713224 -1.7333956 -0.97950578 0 0 0 1.5313322e-38
0.76110578 1.7750769 -1.3350309 0 0 0 1.5313322e-38
0.66448116 -2.0365896 -1.1643908 0 0 0 1.5313322e-38
0.28104782 1.2023125 -0.49570322 0 0 0 1.5313322e-38
0.46778107 -1.3422985 -0.5635128 0 0 0 1.5313322e-38
0.62591743 0.055418968 -0.70289886 0 0 0 1.5313322e-38
0.53773022 -1.5419321 -0.77393091 0 0 0 1.5313322e-38
0.68182993 -0.13052177 -0.93610185 0 0 0 1.5313322e-38
0.59940624 -1.7185459 -0.97950578 0 0 0 1.5313322e-38
0.75603104 2.026741 -1.3561076 0 0 0 1.5313322e-38
0.69383144 -1.988306 -1.1678957 0 0 0 1.5313322e-38
0.29883051 1.3369675 -0.49977121 0 0 0 1.5313322e-38
0.51735592 -1.3441219 -0.56271005 0 0 0 1.5313322e-38
0.62304354 0.2442646 -0.71208775 0 0 0 1.5313322e-38
0.44851398 -1.1439686 -0.79919755 0 0 0 1.5313322e-38
0.68173361 0.046459198 -0.9476822 0 0 0 1.5313322e-38
0.65604258 -1.7453108 -0.97599155 0 0 0 1.5313322e-38
0.75226736 2.2805748 -1.3773557 0 0 0 1.5313322e-38
0.73192358 -1.9645472 -1.1688691 0 0 0 1.5313322e-38
0.31714296 1.4444904 -0.50298625 0 0 0 1.5313322e-38
0.56320715 -1.3558407 -0.56155056 0 0 0 1.5313322e-38
0.60365057 0.46762371 -0.7231952 0 0 0 1.5313322e-38
0.50337458 -1.1800051 -0.79596144 0 0 0 1.5313322e-38
0.67357659 0.22920513 -0.95980752 0 0 0 1.5313322e-38
0.69996953 -1.7555227 -0.97407472 0 0 0 1.5313322e-38
0.74876904 -1.8977318 -1.1745158 0 0 0 1.5313322e-38
0.36439991 1.4832401 -0.50377357 0 0 0 1.5313322e-38
0.60047531 -1.3220844 -0.56244248 0 0 0 1.5313322e-38
0.59348249 0.69143295 -0.73420167 0 0 0 1.5313322e-38
0.68364215 -1.5678101 -0.76945013 0 0 0 1.5313322e-38
0.67368817 0.41420555 -0.97193283 0 0 0 1.5313322e-38
0.72622323 -1.6939735 -0.97806811 0 0 0 1.5313322e-38
0.76497936 -1.8081436 -1.1823045 0 0 0 1.5313322e-38
0.37184238 1.6621618 -0.50935066 0 0 0 1.5313322e-38
0.63793635 -1.2884426 -0.56333441 0 0 0 1.5313322e-38
0.6265564 0.76951885 -0.73753387 0 0 0 1.5313322e-38
0.70631742 -1.4928293 -0.77343303 0 0 0 1.5313322e-38
0.6668911 0.62816525 -0.98610175 0 0 0 1.5313322e-38
0.77557707 -1.7005472 -0.97631103 0 0 0 1.5313322e-38
0.77423954 -1.6958637 -1.1924297 0 0 0 1.5313322e-38
0.3688364 1.8524647 -0.515387 0 0 0 1.5313322e-38
0.63549685 -1.1545277 -0.56904268 0 0 0 1.5313322e-38
0.47686481 -0.67303276 -0.82645565 0 0 0 1.5313322e-38
0.67317867 0.77305984 -0.99550229 0 0 0 1.5313322e-38
0.80191636 -1.658205 -0.97886682 0 0 0 1.5313322e-38
0.76381421 -1.542037 -1.2070332 0 0 0 1.5313322e-38
0.64522171 -1.0335875 -0.57403737 0 0 0 1.5313322e-38
0.61674786 1.1755629 -0.75742626 0 0 0 1.5313322e-38
0.849406 -1.6594162 -0.97758889 0 0 0 1.5313322e-38
0.774719 -1.429534 -1.2171583 0 0 0 1.5313322e-38
0.63337398 -0.86519814 -0.5813511 0 0 0 1.5313322e-38
0.60763502 1.3864908 -0.76782691 0 0 0 1.5313322e-38
0.6657505 1.1748695 -1.022069 0 0 0 1.5313322e-38
0.88648009 -1.6494951 -0.97742915 0 0 0 1.5313322e-38
0.76670718 -1.2772894 -1.2315671 0 0 0 1.5313322e-38
0.63094234 -0.7002306 -0.58839726 0 0 0 1.5313322e-38
0.59245396 1.6556396 -0.78115582 0 0 0 1.5313322e-38
0.60708237 -0.62452793 -0.82682908 0 0 0 1.5313322e-38
0.67019796 1.3684235 -1.0347393 0 0 0 1.5313322e-38
0.92784977 -1.6320534 -0.97774863 0 0 0 1.5313322e-38
0.77019548 -1.1361313 -1.2446131 0 0 0 1.5313322e-38
0.63865495 -0.56367111 -0.59410554 0 0 0 1.5313322e-38
0.57507372 1.9405308 -0.79529256 0 0 0 1.5313322e-38
0.68215203 -0.70127296 -0.82085466 0 0 0 1.5313322e-38
0.66109729 1.6180477 -1.0513605 0 0 0 1.5313322e-38
0.97168851 -1.6223669 -0.97742915 0 0 0 1.5313322e-38
0.7812326 -1.015728 -1.255517 0 0 0 1.5313322e-38
0.63229179 -0.40237713 -0.60106248 0 0 0 1.5313322e-38
0.5760417 2.1308994 -0.80458242 0 0 0 1.5313322e-38
0.69673634 -0.60887623 -0.82608223 0 0 0 1.5313322e-38
0.62857485 1.9314508 -1.0726138 0 0 0 1.5313322e-38
0.87154865 -1.1711702 -1.0143284 0 0 0 1.5313322e-38
0.76890063 -0.8402319 -1.2722625 0 0 0 1.5313322e-38
0.63665152 -0.24837589 -0.60757345 0 0 0 1.5313322e-38
0.60237837 2.2616596 -0.81064099 0 0 0 1.5313322e-38
0.63366437 2.1410847 -1.086374 0 0 0 1.5313322e-38
0.90301394 -1.1155472 -1.0178425 0 0 0 1.5313322e-38
0.76539707 -0.66631889 -1.2886184 0 0 0 1.5313322e-38
0.63224053 -0.061727524 -0.61560071 0 0 0 1.5313322e-38
0.71088672 -0.32056713 -0.84300965 0 0 0 1.5313322e-38
0.66494107 2.2542219 -1.0933223 0 0 0 1.5313322e-38
0.7625401 -0.49030972 -1.3051691 0 0 0 1.5313322e-38
0.6175518 0.13834095 -0.62434149 0 0 0 1.5313322e-38
0.70231199 -0.14386749 -0.85371375 0 0 0 1.5313322e-38
0.69867706 -0.13172913 -1.0980304 0 0 0 1.5313322e-38
0.75414443 -0.31614113 -1.3217198 0 0 0 1.5313322e-38
0.62592173 0.29091644 -0.63076329 0 0 0 1.5313322e-38
0.69781065 0.048471451 -0.86528909 0 0 0 1.5313322e-38
0.72987413 -0.060050964 -1.1028225 0 0 0 1.5313322e-38
0.76720953 -0.18557835 -1.3335974 0 0 0 1.5313322e-38
0.53006697 -1.2045202 -0.34255388 0 0 0 1.5313322e-38
0.60969782 0.50480652 -0.64012843 0 0 0 1.5313322e-38
0.67864561 0.26961136 -0.87885594 0 0 0 1.5313322e-38
0.73447609 0.078437805 -1.1133652 0 0 0 1.5313322e-38
0.75529599 0.0080080032 -1.3520952 0 0 0 1.5313322e-38
0.61150169 0.68840218 -0.64797729 0 0 0 1.5313322e-38
0.67908287 0.45471478 -0.88993341 0 0 0 1.5313322e-38
0.73261905 0.26887035 -1.1280609 0 0 0 1.5313322e-38
0.75436473 0.19426537 -1.3696195 0 0 0 1.5313322e-38
0.63698649 0.79336739 -0.65216929 0 0 0 1.5313322e-38
0.66336846 0.70143986 -0.90499383 0 0 0 1.5313322e-38
0.73210597 0.45949364 -1.1427567 0 0 0 1.5313322e-38
0.74278045 0.42282963 -1.3914275 0 0 0 1.5313322e-38
0.61144161 1.0830307 -0.66492367 0 0 0 1.5313322e-38
0.70271945 0.75817013 -0.90773207 0 0 0 1.5313322e-38
0.73132539 0.65605927 -1.1579317 0 0 0 1.5313322e-38
0.75161314 0.58457184 -1.4064205 0 0 0 1.5313322e-38
0.60748768 1.2727394 -0.67312932 0 0 0 1.5313322e-38
0.73890281 0.79889202 -1.1687938 0 0 0 1.5313322e-38
0.75053 0.75783157 -1.4227765 0 0 0 1.5313322e-38
0.60345507 1.497488 -0.6828512 0 0 0 1.5313322e-38
0.68579626 1.1966848 -0.93436784 0 0 0 1.5313322e-38
0.7316885 1.02847 -1.1866844 0 0 0 1.5313322e-38
0.74011755 0.99855423 -1.4457527 0 0 0 1.5313322e-38
0.5874548 1.7415676 -0.69355422 0 0 0 1.5313322e-38
0.67826104 1.4055977 -0.94706339 0 0 0 1.5313322e-38
0.72109771 1.2466164 -1.2037761 0 0 0 1.5313322e-38
0.73211217 1.2067442 -1.4656136 0 0 0 1.5313322e-38
0.57426548 2.0131178 -0.70541668 0 0 0 1.5313322e-38
0.66698241 1.665 -0.9628706 0 0 0 1.5313322e-38
0.72108507 1.4612379 -1.2203888 0 0 0 1.5313322e-38
0.72846437 1.4344797 -1.4872268 0 0 0 1.5313322e-38
0.59487247 2.1631861 -0.71166009 0 0 0 1.5313322e-38
0.62774754 2.0386162 -0.98602134 0 0 0 1.5313322e-38
0.72663021 1.6606207 -1.2357235 0 0 0 1.5313322e-38
0.72844911 1.6547308 -1.5080613 0 0 0 1.5313322e-38
0.65386724 2.1361532 -0.99149787 0 0 0 1.5313322e-38
0.71769309 1.8890009 -1.2536141 0 0 0 1.5313322e-38
0.71908665 1.884696 -1.530064 0 0 0 1.5313322e-38
0.67784953 2.2783012 -0.99971265 0 0 0 1.5313322e-38
0.71034241 2.1505461 -1.2740604 0 0 0 1.5313322e-38
0.71454382 2.3736687 -1.2913119 0 0 0 1.5313322e-38
